-0.025841 0.033931 -0.021082 0.055959 -5.332426 2.715326 
-0.060805 0.086768 -0.019662 -2.776627 0.526315 -5.590112 
0.006694 0.034064 0.002055 -0.015495 -6.259064 0.020490 
0.041031 0.042290 -0.000688 0.000000 0.000000 0.000000 
-0.005504 0.054796 0.053803 -1.569885 -0.952004 5.983215 
0.027666 0.034679 0.013157 0.703251 -6.229886 0.324200 
0.011603 0.035585 -0.021581 1.523199 -4.447224 -3.900423 
-0.063946 0.153257 -0.006701 5.264486 3.180011 1.224269 
-0.064729 0.126998 0.046856 4.812046 2.450294 3.150193 
-0.021879 0.038344 -0.003884 0.277530 -6.246578 -0.241338 
-0.088174 0.151960 0.013923 -2.930210 5.466648 -1.000730 
0.045782 0.086205 0.006183 6.221949 0.270750 -0.818926 
-0.009486 0.048835 0.049636 -1.292099 -4.298615 4.351413 
0.002258 0.071173 -0.034377 1.140529 -2.322691 -5.704766 
-0.062649 0.164698 -0.036591 5.725211 2.469215 0.598822 
0.013870 0.049008 0.046176 3.015702 -3.262723 4.439879 
-0.071151 0.132664 0.049885 3.337974 1.663836 5.051364 
0.008093 0.126458 -0.006281 1.186229 5.097873 -3.462383 
-0.044167 0.065718 0.040255 -3.178488 -0.658069 5.371368 
-0.074389 0.087422 0.039915 -3.226493 -1.057620 5.280567 
-0.076718 0.159013 -0.012032 -5.500810 2.192389 1.910416 
-0.092242 0.128315 0.029260 -5.976562 1.431890 1.289488 
-0.006359 0.093108 -0.034738 0.543890 3.395635 -5.248545 
0.040698 0.104234 0.018167 5.802744 2.267502 0.801742 
0.039838 0.087410 0.033132 5.189799 0.678363 3.450448 
-0.013630 0.094383 -0.034090 -0.335862 4.585617 -4.241099 
0.013179 0.079380 0.054233 0.617050 1.525580 6.047660 
-0.004738 0.068443 -0.035580 1.954577 -1.833326 -5.616435 
-0.078142 0.141688 -0.004736 -3.296665 1.442476 -5.133005 
0.008213 0.071148 -0.033138 2.139368 -1.811949 -5.460857 
-0.087736 0.086098 0.008478 -5.399113 -3.175406 0.096919 
-0.070939 0.131124 -0.008522 -1.101042 1.269356 -6.047414 
-0.061380 0.170960 -0.057595 6.115666 0.710045 1.168716 
-0.014310 0.033815 -0.022462 -0.031155 -6.256936 0.465635 
0.019341 0.059365 -0.027157 2.045435 0.604247 -5.896039 
-0.070290 0.063891 0.021124 -3.440220 -4.585366 2.556324 
-0.047227 0.064282 0.037640 -3.999259 -1.393921 4.604824 
-0.082055 0.110200 0.040179 -1.346655 -6.065626 0.896246 
-0.049913 0.051514 0.016650 -6.116134 0.330383 -0.069493 
-0.075698 0.148597 -0.013866 -5.357546 -3.091622 -0.749510 
-0.066607 0.084693 0.043768 -2.404827 -1.353242 5.636020 
0.025182 0.035712 0.022648 1.975551 -5.653124 1.876517 
-0.080418 0.153092 0.004887 -2.466282 5.439703 -1.939940 
-0.068848 0.099459 -0.015261 -1.802975 1.424371 -5.792117 
-0.033403 0.076538 -0.027511 -5.393586 -0.322593 -2.685509 
-0.080432 0.078146 0.029561 -4.125308 -3.927789 2.647251 
-0.067006 0.033795 0.007387 -0.283025 -6.247211 0.312680 
-0.063064 0.034314 0.030706 -0.261883 -6.258406 -0.046971 
-0.044682 0.065121 -0.014518 -1.239851 -3.013976 -5.293140 
-0.087546 0.110452 0.014340 -4.446022 -4.255519 -0.066802 
0.024413 0.114257 -0.011143 3.943202 2.741799 -4.018005 
-0.060917 0.109692 -0.016009 -2.105845 2.152040 -5.513971 
-0.070430 0.164039 -0.014927 1.188762 5.501717 2.790328 
-0.072777 0.168690 -0.024408 -1.176586 5.610562 2.347567 
-0.038516 0.076187 0.042339 1.538509 -1.284520 5.913620 
-0.094211 0.120123 0.021293 -6.102365 -1.405873 0.301743 
0.046396 0.077858 0.014179 6.259254 0.287793 0.410174 
0.007586 0.034129 -0.016561 -0.011669 -6.245889 0.346391 
-0.092670 0.124234 0.040254 -5.897079 1.462545 1.428591 
-0.060329 0.117230 -0.011812 -2.273697 3.717085 -4.493114 
-0.029594 0.078971 0.042796 -5.043554 -1.633767 3.341602 
-0.062051 0.164652 -0.054587 6.169938 -1.022885 0.429214 
-0.072069 0.070977 0.032185 -3.270097 -4.344611 3.137860 
-0.051731 0.164095 0.000043 -4.281200 4.572051 -0.347682 
0.021650 0.065881 0.047049 4.212791 -0.906744 4.523559 
0.035312 0.084070 -0.017786 3.883790 0.153890 -4.848303 
-0.079248 0.154932 0.011125 -1.607359 6.027661 -0.744970 
-0.036665 0.035304 0.023032 -1.894256 -2.895073 -0.679216 
-0.057082 0.138706 -0.004798 3.368721 1.423774 -4.985652 
-0.081955 0.099332 0.031590 -4.371626 1.625982 4.209212 
-0.005547 0.042963 0.048113 1.789503 1.735292 5.747375 
0.036501 0.075614 -0.012786 4.444479 -0.416031 -4.040740 
-0.057982 0.034338 0.031760 -0.129368 -6.272223 0.276155 
0.037329 0.084807 0.036474 4.657920 0.073000 4.214525 
0.045066 0.076194 0.022871 5.863565 -0.547571 2.168765 
-0.065620 0.069055 -0.010081 -2.836844 -4.509521 -3.296909 
0.003502 0.123774 0.033832 -0.080662 3.915339 4.906180 
0.057756 0.056538 0.004194 5.409794 -1.962079 -2.510943 
-0.061763 0.079590 -0.018997 -1.121984 -1.490914 -5.966768 
-0.012308 0.181626 -0.024991 4.850333 2.414543 3.163814 
-0.047089 0.156143 -0.007368 -2.764773 -1.472576 -5.408375 
-0.038510 0.124563 -0.007724 2.064795 4.950495 -3.263465 
0.018233 0.036946 -0.015679 4.788583 -3.636154 -1.572547 
-0.056506 0.062971 0.030097 -1.121172 -5.487674 2.842347 
0.018104 0.128017 0.010630 2.781426 5.625376 -0.200609 
-0.016979 0.106067 -0.022333 1.260491 2.082629 -5.750206 
-0.068900 0.172262 -0.055034 -5.041234 -1.686308 -3.325823 
-0.056245 0.034592 0.044003 0.045942 -6.051328 1.335350 
-0.055208 0.119827 0.037682 4.265928 -1.377284 4.393249 
-0.056303 0.124125 0.039648 3.802891 0.526225 4.880463 
-0.051529 0.055922 0.016773 -2.545428 -1.815216 -0.442032 
0.010196 0.086500 -0.031473 2.536227 0.033099 -5.733019 
0.008500 0.058924 0.053176 0.000000 0.000000 0.000000 
0.029005 0.115546 0.030382 3.699427 3.890343 3.246108 
0.039390 0.107905 0.007011 5.215603 3.477676 -0.405380 
-0.028415 0.178753 -0.005949 2.364099 1.927242 4.465380 
-0.061225 0.040789 0.043789 -3.668257 1.458959 4.854410 
-0.010492 0.119661 0.037142 -0.672242 3.742003 4.986319 
-0.066656 0.065652 -0.004895 -3.092918 -3.710301 -4.007864 
-0.017498 0.074412 0.055362 -1.984563 -1.199967 5.800148 
0.034438 0.102088 0.034180 4.375059 2.564529 3.699768 
0.037476 0.096762 0.033256 4.417567 2.140620 3.911584 
-0.030987 0.045864 -0.027187 -0.822859 4.565972 -4.205119 
0.032372 0.116958 0.020239 4.673914 4.158200 0.583038 
-0.014590 0.101524 -0.023587 -0.895568 0.446675 -6.160889 
-0.069151 0.152358 -0.047074 2.014027 -1.426239 -0.592460 
-0.052826 0.149337 0.021410 6.096140 0.661104 1.201048 
-0.068763 0.168362 -0.025835 2.867019 5.210757 1.954885 
0.019265 0.070801 -0.028772 2.650824 0.556251 -5.629982 
-0.032229 0.070815 -0.024472 -5.635303 -2.048992 -1.853368 
-0.047499 0.102884 0.041227 -1.483105 2.148033 5.626968 
-0.044501 0.165214 0.004832 0.113356 2.870790 5.485457 
0.028461 0.039827 -0.003254 1.327202 -4.030722 -4.626966 
0.021637 0.094849 -0.022419 2.107315 1.678218 -5.664418 
0.007320 0.035141 -0.004400 -3.392921 -4.512910 -2.535471 
-0.069775 0.155761 0.026098 -0.063276 6.122766 1.401805 
0.050173 0.044677 0.007231 4.027642 -4.740343 -0.851591 
-0.066994 0.035814 0.031306 -5.289160 -1.778950 -0.881011 
-0.028108 0.177558 -0.016771 -3.824991 2.446063 -4.322817 
-0.024714 0.161052 -0.002526 1.483824 4.642215 3.706512 
0.040709 0.095695 -0.005808 5.008640 2.035313 -3.172997 
-0.024371 0.122748 0.025597 -1.592907 5.552605 2.282295 
-0.005211 0.038426 0.017644 -0.004250 -6.275429 0.150250 
-0.026745 0.072585 -0.035665 -3.566101 -1.658817 -4.879508 
0.060795 0.062342 0.015167 6.236722 -0.462579 0.580399 
-0.022303 0.095782 -0.027583 -1.734802 5.720890 -1.811160 
-0.089395 0.092910 0.012442 -6.028715 1.137834 -1.351433 
0.041604 0.077445 -0.006804 5.214250 -0.058734 -3.490945 
-0.062572 0.146800 0.037721 2.431332 0.861216 5.720508 
-0.041396 0.108900 -0.019271 -0.538176 2.828929 -5.583774 
0.026870 0.098167 0.042523 3.097793 2.448666 4.838110 
0.015500 0.114020 0.037778 0.876193 2.830527 5.535795 
0.017926 0.090057 0.048881 4.421520 1.526066 4.147388 
-0.091808 0.114610 0.020206 -4.560507 -3.999519 1.543508 
-0.051287 0.033524 -0.001776 0.260862 -6.277023 0.096665 
0.048266 0.043331 0.018561 3.188564 -5.232751 1.217124 
0.040619 0.104193 0.001176 5.116643 3.091300 -1.890033 
0.031835 0.054052 -0.012762 5.179887 -2.629643 -2.324358 
-0.035876 0.107103 -0.020268 -0.193411 1.058985 -6.146434 
-0.074776 0.152715 -0.022892 -5.697896 2.555154 -0.639138 
-0.084658 0.077766 0.007517 -5.300453 -3.228801 -0.504443 
-0.074913 0.151363 0.036306 -0.734533 5.307342 3.257198 
-0.025821 0.083961 -0.037141 -2.435476 0.977802 -5.704277 
-0.089161 0.137877 0.025194 -5.743160 -0.747851 1.706645 
-0.077976 0.133950 -0.005681 -2.988497 1.194359 -5.364169 
-0.092476 0.124198 0.032266 -6.228537 0.821494 0.008771 
-0.088453 0.112251 0.035305 -3.104911 -5.391268 -0.664674 
0.006289 0.034184 -0.018778 0.037053 -6.265355 0.076859 
-0.033434 0.038223 0.050091 -4.602025 -0.682840 4.071818 
-0.068689 0.176906 -0.048767 3.036098 4.486531 3.180139 
0.046562 0.056846 0.032078 1.478805 0.645518 5.952591 
-0.062703 0.150609 -0.023578 5.918174 -2.005546 -0.382408 
-0.051808 0.091301 -0.022055 0.954283 0.252777 -6.179005 
-0.050898 0.033566 0.005493 -0.050166 -6.263798 0.092793 
-0.012912 0.033928 -0.020410 0.063830 -6.131762 1.171631 
-0.077464 0.155549 -0.013904 -6.016929 -1.132451 0.520107 
-0.062793 0.083857 -0.019167 -0.699648 0.176143 -6.209188 
0.002923 0.038370 -0.002636 -2.883667 -4.957296 -2.292330 
-0.090303 0.113239 0.010330 -4.320149 -4.264031 -1.536537 
-0.083983 0.083048 -0.002515 -4.985798 -2.949930 -2.095534 
-0.023413 0.181486 -0.019027 -4.380338 2.442182 -3.778574 
-0.051022 0.033935 0.008742 1.420115 -5.499456 2.506479 
-0.015282 0.126335 -0.001754 -1.933731 5.500569 -2.333963 
0.029673 0.048168 -0.008743 4.597507 -3.783745 -1.981829 
0.008501 0.056103 0.052817 0.269063 -0.841629 6.198148 
-0.035749 0.038380 -0.010405 0.405385 -6.264361 0.089602 
0.050167 0.056779 0.030228 2.831559 -0.772355 5.552622 
-0.066853 0.091456 0.043506 0.000000 0.000000 0.000000 
0.046032 0.082029 0.015173 6.247910 0.596200 0.255309 
-0.049095 0.140149 0.011394 6.037094 1.661150 0.401040 
-0.026849 0.093128 -0.028596 -3.623324 4.629649 -2.032919 
0.024887 0.072744 0.046539 4.981449 -1.539057 3.472597 
-0.086894 0.122556 -0.001734 -4.752259 -0.011293 -3.998193 
0.022475 0.094781 0.047095 1.951736 1.659581 5.719923 
-0.009168 0.171172 -0.022737 5.791507 1.470638 1.930008 
0.042321 0.088548 0.027912 5.498774 1.046625 2.839064 
-0.016983 0.038594 -0.004978 0.516444 -6.255843 -0.157460 
0.042685 0.098681 0.020158 5.703334 2.439147 0.972569 
0.014825 0.044741 0.043998 0.548021 1.649221 6.028575 
-0.061189 0.155469 0.005899 -2.146728 5.800534 -0.485162 
-0.050391 0.140104 0.018383 5.645797 2.219983 1.580563 
-0.045835 0.094197 -0.021923 -0.442144 -0.181381 -6.257854 
-0.024939 0.183594 -0.012676 -3.602187 5.014963 0.155237 
-0.051068 0.059880 0.031671 -5.556672 -0.907263 2.778414 
-0.087055 0.118453 0.000245 -4.367426 -2.766336 -3.514713 
-0.018663 0.036095 0.052527 1.884316 -3.363052 4.544209 
0.012421 0.122685 -0.010210 1.634507 5.098115 -3.226438 
-0.033620 0.050597 -0.010760 -1.315979 3.535415 -3.604633 
-0.005421 0.039159 0.034993 -0.041321 -6.237043 0.547712 
-0.009627 0.038439 0.009477 0.228939 -6.278171 0.028786 
-0.052166 0.136903 -0.000627 4.166578 2.486713 -3.980358 
-0.003823 0.085452 -0.037243 1.048494 1.889804 -5.842026 
-0.018818 0.068305 0.053000 -3.238155 -1.823728 5.053200 
-0.056357 0.155043 0.014897 2.175109 5.807817 0.969087 
-0.044465 0.094505 0.042950 2.052441 0.471773 5.906247 
0.045018 0.087545 0.000185 6.154041 -0.196681 -1.065819 
-0.029128 0.038657 -0.013043 -0.081363 -6.273956 -0.292122 
-0.080620 0.114932 0.047462 -0.170311 -3.639183 4.992348 
-0.047699 0.144615 0.004353 2.853743 -5.467217 1.082122 
0.014012 0.072675 0.053649 2.256861 -1.234557 5.660016 
0.004384 0.046525 -0.027585 1.851422 -4.132066 -4.304400 
0.026195 0.044918 0.037580 4.528172 -1.579591 4.044678 
-0.048018 0.133707 0.004902 5.391623 2.838940 -1.494827 
0.059314 0.069155 0.009143 5.464467 2.497891 -1.719496 
0.048510 0.072310 0.018816 -1.596645 5.765034 1.831582 
0.046199 0.075032 0.005190 6.142778 0.439435 -1.240789 
-0.028590 0.125327 0.004961 0.026002 6.213612 -0.825196 
-0.019670 0.055444 -0.032449 -2.569491 -2.661468 -5.054687 
-0.051417 0.062742 0.032730 -4.057559 -3.198080 3.416661 
0.024828 0.076859 0.048244 3.947183 -1.263201 4.640391 
-0.076101 0.069362 0.022228 -3.873157 -4.755319 1.332461 
-0.006492 0.104468 0.043926 -0.649776 -0.764636 6.199069 
-0.063642 0.067527 -0.009244 -2.722144 -4.592147 -3.252126 
-0.090885 0.150208 0.018128 -5.114344 3.429535 0.209397 
0.039533 0.105566 0.022162 5.620042 2.562361 1.112465 
0.001491 0.103013 0.043912 0.879155 2.158992 5.820509 
-0.003880 0.039494 0.036810 0.182007 -2.289931 0.374445 
0.019139 0.125192 -0.000919 2.597872 5.021762 -2.737306 
-0.070955 0.134052 -0.008176 -0.965088 0.408856 -6.184504 
0.004198 0.123154 -0.010660 -0.505045 4.890485 -3.902593 
-0.053725 0.072355 -0.016258 1.139606 -3.230436 -5.258754 
0.059370 0.069183 0.017177 5.350639 2.877680 1.535475 
-0.007735 0.126640 -0.006282 -1.314683 5.477419 -2.738762 
0.010970 0.052022 0.050813 3.017127 -3.078038 4.520913 
0.036496 0.064355 -0.012773 4.325134 -1.740928 -4.186715 
-0.023256 0.171248 -0.012738 3.050600 1.551857 5.241622 
-0.035824 0.091504 -0.023940 -0.825689 0.571156 -6.202178 
-0.033739 0.035564 0.032321 4.145918 -4.560290 0.948381 
-0.061858 0.099667 -0.018337 -1.695050 -0.788324 -5.978894 
-0.075807 0.087733 -0.013910 -4.169702 0.055906 -4.699641 
-0.020728 0.168298 -0.012615 2.173106 3.257320 4.906974 
-0.069204 0.156713 -0.051943 -5.160040 -1.436172 -2.730565 
-0.084640 0.153647 0.013659 -2.321335 5.793361 -0.658171 
-0.014260 0.180104 -0.027919 -3.813846 -0.511301 -4.935169 
0.007270 0.112320 0.040519 2.236996 1.263142 5.726118 
-0.034003 0.108900 -0.019287 1.891659 2.428596 -5.466953 
-0.025498 0.107106 0.040833 -1.767652 2.773879 5.351516 
-0.026177 0.039539 0.054111 -0.776764 0.407655 6.215565 
0.017316 0.062266 -0.028279 2.383559 -1.792198 -5.529971 
-0.074762 0.070092 -0.001487 -3.368221 -4.645891 -2.491397 
-0.014497 0.085642 0.057070 -1.023711 0.074966 6.182434 
-0.026929 0.037698 0.019280 -0.007464 -6.257101 -0.231736 
-0.048786 0.057303 0.035144 -4.931297 -0.078219 3.880648 
-0.091258 0.116106 0.041708 -4.963265 -3.027716 2.329562 
-0.055326 0.126836 -0.006013 2.460002 1.487997 -5.499309 
-0.087578 0.102333 0.021365 -5.480010 2.363960 1.956753 
-0.043302 0.034273 -0.026713 -3.248843 -1.447383 -1.677662 
0.041574 0.076554 0.030245 5.633305 -0.122359 2.774228 
-0.042760 0.128938 0.012998 2.848766 5.317516 1.528804 
-0.011184 0.110115 -0.020641 -1.967799 3.534212 -4.797312 
0.003499 0.050513 0.052525 -0.460815 -3.234665 5.260935 
-0.077345 0.083884 -0.011583 -4.377880 -1.674770 -4.167812 
-0.024048 0.159369 -0.012293 0.711207 -4.830046 -3.948286 
-0.054815 0.088394 -0.022032 -0.784610 -1.285068 -6.064410 
-0.065909 0.060220 0.016394 -1.976443 -5.816307 1.281670 
0.005395 0.043355 -0.024587 0.525130 -2.735336 -5.595873 
-0.089402 0.099681 0.014402 -6.120611 1.324859 -0.352445 
-0.051230 0.133896 0.029412 4.580445 3.156757 2.914643 
0.026748 0.065937 0.043883 2.672903 0.695965 5.641633 
-0.029792 0.108873 -0.019272 -1.235937 3.905874 -4.726358 
-0.008415 0.036657 -0.016416 -0.849765 -3.211944 5.326598 
0.031804 0.066152 0.040668 3.062969 -0.290632 5.469007 
0.002221 0.130562 0.001908 -0.111812 6.130323 -1.368451 
-0.075811 0.074187 -0.007605 -3.880861 -3.021861 -3.886390 
-0.002489 0.045650 0.046962 0.050213 -2.905648 5.057678 
0.023024 0.100791 0.044000 2.981918 2.947049 4.678964 
0.058474 0.053812 0.017184 5.836771 -2.232324 0.573982 
0.014371 0.049373 -0.026707 2.688997 -2.606941 -4.795150 
-0.083975 0.080481 0.022501 -5.429114 -2.163432 2.179930 
-0.049730 0.073780 -0.016575 0.011438 -3.637597 -5.095189 
0.020494 0.126700 0.008664 2.893161 5.552625 -0.475207 
0.044164 0.093119 0.000177 5.787385 1.724971 -1.718132 
-0.077158 0.158311 -0.022906 -4.043969 -4.064172 -2.379683 
-0.038071 0.123893 0.025123 0.201973 5.493530 3.006274 
-0.060678 0.063998 0.030088 -1.538394 -5.462309 2.693481 
0.025338 0.041873 -0.005885 0.000000 0.000000 0.000000 
-0.057034 0.144219 -0.001852 1.502779 1.210827 -5.934071 
-0.018488 0.082908 0.057614 -1.253926 0.195731 6.034572 
0.001398 0.041930 -0.024498 0.865064 -0.656066 -6.099100 
-0.059498 0.090438 0.045185 0.127637 -0.495578 6.232951 
-0.073783 0.086402 -0.015410 -2.824041 0.019871 -5.593910 
0.037389 0.047642 -0.006131 0.940006 -1.690251 -5.947291 
-0.058266 0.059729 0.021929 -2.924518 -5.133836 1.635441 
-0.092357 0.121517 0.042609 -5.514099 0.226087 2.910854 
-0.068112 0.112409 0.045126 2.605952 -5.398818 1.872747 
-0.037924 0.175153 -0.007397 -3.335308 5.278174 -0.392586 
-0.056100 0.143890 0.031206 4.328027 -0.666981 4.441638 
-0.023449 0.122824 -0.005996 -1.220420 5.526065 -2.721644 
-0.031799 0.038204 0.001558 0.011491 -1.935822 -0.172227 
-0.029729 0.033587 -0.025274 -0.072119 -6.272873 0.164553 
0.007300 0.090794 -0.032262 2.820155 2.015631 -5.196786 
-0.017703 0.056968 -0.034039 -2.029782 -2.682644 -5.304813 
-0.056890 0.101220 -0.019299 -2.392575 1.614594 -5.496408 
-0.046872 0.058768 0.037444 -4.547457 -0.295673 4.309523 
-0.074830 0.174171 -0.039585 -1.401076 5.347740 2.794796 
-0.085544 0.106245 0.004468 -5.593606 1.707701 -2.290830 
-0.060400 0.059128 0.018511 -1.599446 -5.829628 1.684929 
0.031143 0.088516 -0.019600 2.559191 1.049263 -5.635969 
-0.082779 0.077131 0.021157 -4.665138 -3.918184 1.484740 
0.028814 0.110493 -0.011093 2.957254 3.241568 -4.465059 
-0.009067 0.129748 0.004892 -1.083913 6.112727 -0.950577 
0.044096 0.073585 0.024931 5.853382 -0.312904 2.257383 
-0.030736 0.053835 -0.015374 -5.909763 -0.515709 -1.992334 
-0.009776 0.077052 -0.037942 0.894995 0.462913 -6.198264 
0.037593 0.102015 0.029918 4.903831 2.129042 3.291109 
0.016354 0.050760 -0.025927 2.541673 -3.130567 -4.729558 
-0.051513 0.045278 0.043411 1.401624 4.284084 4.218359 
0.009216 0.076758 -0.033190 3.724574 0.583053 -5.008300 
-0.038499 0.069104 0.041778 -0.110586 -0.341384 6.269313 
0.020540 0.116646 0.035150 2.695160 2.547021 5.070028 
-0.057411 0.033488 -0.008462 -0.293276 -6.257353 -0.441734 
0.010013 0.034958 -0.011200 -3.470438 -5.111284 0.815421 
-0.002230 0.039691 0.047401 1.857265 -0.062081 5.990972 
-0.016325 0.039013 0.034678 -0.058256 -6.254433 0.451584 
-0.062416 0.150640 -0.016574 6.193819 -1.046866 -0.051389 
0.035327 0.107617 -0.005966 4.966484 2.955066 -2.447744 
0.010276 0.076623 0.055285 2.825410 0.298134 5.598331 
-0.029868 0.091647 -0.025229 -4.081969 2.378061 -3.794748 
-0.026576 0.053399 -0.026393 -4.690593 -1.101593 -4.020702 
-0.068639 0.043534 0.005698 0.000000 0.000000 0.000000 
-0.034492 0.090370 0.044219 -1.658129 -2.064024 5.610402 
-0.025186 0.160795 -0.013957 0.426330 -4.106605 -4.723475 
0.021598 0.121636 0.030509 2.717590 4.492031 3.431503 
0.028799 0.038552 0.026258 2.166132 -5.251925 2.650158 
-0.020515 0.114503 -0.017255 -1.430176 4.327990 -4.285954 
-0.049489 0.143125 0.003385 4.726557 -3.541625 -1.860599 
-0.068664 0.043543 0.002681 -4.284409 4.260464 -0.408067 
-0.037100 0.126156 -0.003418 1.792976 5.721363 -1.872165 
0.035564 0.058664 -0.011732 4.741515 -2.600551 -3.154804 
-0.031541 0.125778 0.003875 2.111588 5.833877 -0.950893 
-0.086545 0.109036 0.012360 -5.721821 -1.510638 -1.114799 
-0.010500 0.084293 0.057589 -0.320914 1.049873 6.183384 
-0.019829 0.088252 -0.037538 -1.452147 2.097489 -5.734542 
-0.055647 0.065736 0.034928 -1.213755 -4.857402 3.789925 
-0.069719 0.088758 0.042298 -3.291546 0.472591 5.315906 
-0.044724 0.169659 -0.000473 -2.804082 5.202088 2.099853 
-0.090125 0.125637 0.044530 -4.703525 1.882314 3.714799 
-0.006868 0.038532 0.008134 0.109121 -6.275714 -0.197746 
0.021571 0.035903 0.028995 3.138026 -5.357100 0.927299 
-0.073245 0.144163 -0.010945 -4.407337 -4.224781 -0.908341 
-0.023428 0.063651 0.043634 -5.106657 -1.492024 3.340863 
0.034744 0.083540 0.039772 4.933800 0.119411 3.869635 
-0.077429 0.071226 0.023842 -4.563697 -4.045770 1.503879 
-0.049498 0.096024 0.044482 -0.241642 1.383565 6.061478 
-0.062533 0.155555 0.025743 0.765941 6.034798 1.175790 
0.016186 0.128058 0.002810 2.638944 5.571858 -1.190449 
0.023586 0.035278 0.015432 -3.296588 -5.197299 -1.222243 
0.013156 0.129936 0.007389 1.958565 5.944816 -0.532885 
0.040976 0.072537 0.031071 5.435716 -0.473918 3.113479 
-0.084030 0.151908 0.028741 -2.633260 5.316614 2.039888 
-0.052859 0.034442 0.032757 0.133319 -6.276662 0.222957 
-0.081466 0.130234 0.052209 -2.747443 1.479112 5.432536 
-0.020343 0.186558 -0.016601 -2.150945 5.463870 0.501059 
-0.078843 0.112725 -0.002835 -3.795883 -1.427001 -4.574345 
-0.000597 0.043361 -0.024974 0.471256 -2.277261 -5.349613 
-0.062354 0.152149 -0.025584 6.046889 -1.664123 -0.331699 
-0.027792 0.078218 -0.035961 -3.653498 -1.044840 -4.995914 
-0.031464 0.126198 0.014168 2.327626 5.777852 0.775788 
-0.051498 0.102890 0.041232 -0.034699 2.645862 5.690242 
-0.058872 0.102608 -0.018764 -0.446905 0.731430 -6.213117 
-0.079492 0.134473 0.051176 -1.632719 2.872910 5.334023 
-0.019555 0.038728 -0.014927 0.209011 -6.254549 0.341127 
-0.084349 0.092533 -0.004549 -5.224699 0.684366 -3.398310 
-0.014601 0.127548 0.000964 -1.644823 5.794737 -1.757159 
-0.054516 0.049049 -0.005404 -4.377322 1.362771 -4.274078 
-0.024177 0.174170 -0.020228 -3.034034 -0.252887 -5.473083 
-0.020792 0.117992 -0.012906 0.162660 4.378589 -4.493703 
-0.081524 0.089900 0.032875 -5.118612 -0.004330 3.640757 
-0.044695 0.068071 -0.015931 -1.234431 -2.333342 -5.663230 
0.021356 0.052122 -0.025187 2.975071 -3.363539 -4.309349 
-0.062481 0.094591 0.044342 -1.841388 2.300905 5.483942 
-0.081685 0.073475 0.009536 -5.676862 -2.627923 0.394535 
0.009910 0.081958 0.054804 2.443669 -0.399491 5.749776 
-0.061339 0.058719 0.009678 -1.335162 -6.092226 -0.706005 
-0.020501 0.097177 0.045328 -1.785315 3.967552 4.059590 
-0.036476 0.091770 0.044038 -1.743442 -1.241243 5.874202 
0.022674 0.043063 -0.011732 4.308219 -4.236046 -1.204249 
-0.024726 0.063900 -0.032873 -3.952332 -1.656828 -4.585722 
-0.019491 0.120861 0.032457 -1.804989 4.797301 3.556134 
-0.027268 0.036802 0.053863 -0.915264 -2.192914 5.486115 
0.044218 0.086081 -0.002797 5.908664 -0.387025 -1.932749 
-0.008607 0.036171 0.049490 1.240235 -2.132035 4.898224 
-0.015475 0.111334 0.041020 -1.522942 2.915080 5.327203 
-0.009716 0.069888 -0.036675 1.610676 -1.958278 -5.705999 
0.027494 0.035467 0.003079 1.451904 -5.816973 -1.709788 
0.014296 0.065233 -0.030048 1.430393 -0.689915 -6.077094 
-0.074025 0.149858 -0.032875 -5.107179 -2.346422 -1.088610 
-0.016634 0.046584 -0.028918 -1.133836 -3.419680 -5.141106 
-0.094346 0.121485 0.023287 -6.088496 -0.994719 0.933039 
-0.070096 0.061970 0.008567 -3.259917 -5.284799 -0.606011 
0.015848 0.102035 -0.022000 0.471847 2.706120 -5.568544 
-0.092566 0.116008 0.012318 -5.811929 -1.987576 -1.193931 
-0.046670 0.166955 -0.005905 -4.453643 2.460016 -3.676119 
-0.062808 0.166262 -0.041591 5.713120 2.335479 0.728158 
-0.040040 0.036777 -0.028415 -3.074446 1.589675 -5.239265 
-0.030327 0.037590 0.027680 3.130029 -4.960309 1.145630 
-0.059872 0.045398 -0.003336 -2.760308 4.861679 -2.834697 
-0.075396 0.090109 0.039437 -3.587989 0.035158 5.157416 
0.024536 0.086245 0.047900 2.704935 -0.135841 5.662411 
-0.018017 0.039062 0.052607 2.509151 0.037667 5.752473 
0.035089 0.111006 -0.001837 0.000000 0.000000 0.000000 
-0.088603 0.143176 0.034033 -5.584331 2.421311 1.532137 
-0.067851 0.166619 -0.055010 -5.749879 -0.196721 -2.509102 
0.037401 0.041413 -0.002428 1.746174 -4.260786 -4.227493 
-0.055018 0.034541 0.040914 -0.048521 -6.274330 0.136475 
-0.019534 0.112367 -0.019010 -1.043982 2.867122 -5.483519 
-0.028681 0.038327 -0.003395 0.221061 -6.278245 0.062361 
-0.078884 0.153282 0.030395 -1.557553 5.715534 2.069491 
0.027850 0.045613 -0.007200 3.355036 -3.971156 -2.714568 
-0.079573 0.086784 -0.009541 -5.029995 0.251660 -3.692732 
-0.038001 0.126520 0.019180 0.025432 5.957118 1.994472 
-0.068775 0.159540 -0.052963 -5.992882 0.309159 -1.842825 
0.026238 0.119658 0.027916 3.578189 4.184818 3.019506 
-0.029560 0.158116 0.000994 2.696310 -1.835265 5.115996 
-0.036536 0.155076 0.003180 3.080874 -2.552727 4.826450 
0.054255 0.047897 0.009210 4.143813 -4.609432 -0.984675 
0.054377 0.073186 0.010654 1.320066 6.026814 -1.030745 
-0.034443 0.174206 -0.001550 0.537252 3.887540 3.861103 
-0.008499 0.077363 0.057652 -0.083296 -0.767852 6.202920 
0.011187 0.089328 -0.030863 1.704880 1.480217 -5.850957 
-0.082051 0.088282 -0.006628 -4.271133 -1.244492 -4.413487 
-0.071204 0.034217 0.004364 -2.914504 -5.490365 0.442396 
-0.000764 0.076926 -0.035917 1.054533 0.063924 -6.191802 
-0.013695 0.125921 0.027877 -2.100114 5.287808 2.661215 
-0.060444 0.045601 0.029681 -2.973601 5.183658 -1.931859 
-0.053590 0.061770 -0.008868 -4.498406 -1.171451 -4.111493 
-0.066182 0.154393 0.001218 2.390535 5.744840 -0.799768 
0.022698 0.118017 -0.009200 2.869144 4.236502 -3.607117 
-0.049938 0.162625 -0.004796 -4.233224 1.787497 -4.258025 
-0.008680 0.111843 -0.020486 -1.390972 3.751600 -4.767624 
-0.020742 0.110014 -0.020512 0.074635 3.928319 -4.888140 
-0.027528 0.066010 0.038818 -3.183755 -1.452434 5.031454 
0.059230 0.058047 0.020193 5.871853 -1.342748 1.774454 
-0.008862 0.129865 0.020846 -1.383688 6.023800 0.969086 
-0.034253 0.161016 -0.000503 1.158681 5.011770 3.486593 
-0.010886 0.107334 -0.022267 -1.103917 2.174685 -5.781594 
-0.025023 0.037368 -0.018493 -0.117405 -3.665475 5.062202 
-0.041365 0.150284 -0.005098 0.652100 -4.693705 -4.115491 
0.031575 0.060559 0.040276 2.479317 -1.255852 5.630215 
-0.040674 0.060690 -0.012187 1.033167 -1.918461 -5.841867 
0.007204 0.088027 -0.032922 2.278863 0.112911 -5.784596 
-0.055410 0.051326 0.009489 -4.818868 1.454708 3.752171 
-0.028694 0.038088 0.029367 0.913902 -6.194004 0.496793 
-0.087597 0.100907 0.006406 -5.494222 1.752233 -2.480541 
-0.002220 0.038078 -0.014625 -0.341353 -4.116507 4.623559 
-0.084720 0.111015 0.033569 -1.853046 -5.903818 -1.015680 
-0.078662 0.073334 0.025273 -4.866196 -3.464176 1.922403 
-0.014486 0.071577 0.054925 1.057591 -1.354419 6.002301 
0.001227 0.121444 0.036229 1.088916 4.365683 4.385456 
-0.073800 0.065121 0.008658 -4.289824 -4.556489 -0.489871 
-0.020481 0.101650 0.043878 1.666269 2.216133 5.637144 
-0.026722 0.038665 -0.016293 -0.067264 -6.184978 0.809117 
-0.060198 0.152175 0.033945 1.994254 4.542284 3.790145 
-0.012727 0.034894 -0.025680 0.618464 -2.801736 -4.706065 
0.024744 0.049097 0.039047 2.794865 -1.071263 5.462900 
-0.058833 0.091170 -0.020586 -3.660419 0.629163 -5.055713 
-0.012831 0.086915 -0.038511 0.878737 1.741868 -5.869617 
-0.073969 0.065392 0.011962 -4.208195 -4.552770 0.867168 
-0.065741 0.035387 0.037904 -3.852703 -4.061707 1.667735 
-0.069800 0.089408 -0.016711 -1.357430 0.782105 -6.042551 
-0.063587 0.044562 0.034690 -4.617737 4.202189 0.578193 
-0.026880 0.181867 -0.013365 -3.786480 4.674107 -1.681432 
-0.086100 0.080568 0.008504 -5.949807 -1.606569 -0.349661 
-0.065783 0.082373 -0.018503 -2.026186 -1.081366 -5.839605 
0.010288 0.063916 -0.031272 2.001728 -0.931302 -5.771894 
0.012999 0.124708 -0.006404 1.845166 4.986543 -3.347268 
-0.067652 0.072009 -0.012017 -2.768762 -4.360226 -3.574660 
-0.047985 0.034615 0.037140 -0.037216 -6.271195 0.057737 
0.034036 0.037677 0.020853 1.640702 -5.774974 1.845956 
-0.085286 0.084513 -0.000515 -5.448677 -2.434258 -1.741730 
0.025208 0.046491 -0.016617 3.009850 -4.686669 -2.853231 
-0.007582 0.036205 -0.025079 0.000000 0.000000 0.000000 
-0.021189 0.175661 -0.022011 -3.314932 -0.531775 -5.291806 
0.059366 0.062213 0.005113 5.734479 0.339737 -2.511315 
-0.058785 0.083996 -0.020785 -2.545708 -0.405059 -5.709069 
-0.017499 0.034270 -0.019756 -0.300383 -5.144694 3.206056 
-0.025274 0.038193 0.026381 0.182295 -6.271981 0.310506 
-0.072466 0.156284 0.017861 -0.320829 6.272713 -0.135422 
0.037636 0.109584 0.020757 5.243954 3.285793 1.015746 
-0.018814 0.124392 0.026112 -2.300436 5.254006 2.546621 
-0.077700 0.162510 -0.021940 -5.833343 1.917149 1.306359 
-0.012435 0.098553 -0.026430 -1.112485 5.848203 -1.932404 
-0.072780 0.088781 0.041111 -2.859678 -0.823073 5.511724 
-0.072824 0.093631 -0.015091 -2.596715 0.624836 -5.680424 
-0.014773 0.078434 -0.038578 0.370715 -1.262737 -6.104730 
-0.051741 0.036779 -0.011895 -0.383550 1.777006 -5.962263 
0.035047 0.107363 0.029739 4.573111 2.481637 3.514964 
-0.077097 0.096785 0.036700 -4.230153 0.768977 4.555780 
-0.069840 0.092280 -0.016292 -1.148877 0.490027 -6.148177 
-0.004502 0.085656 0.057277 -0.507313 0.228084 6.222911 
0.029199 0.082198 0.044043 3.670865 1.219554 4.897647 
-0.064403 0.146849 -0.019975 4.380630 -4.218222 -1.314595 
0.052480 0.063643 -0.001737 2.390842 3.003917 -4.957162 
0.038544 0.103322 0.027728 5.224251 1.950562 2.878380 
-0.061923 0.122370 -0.008838 0.025370 0.597441 -6.249074 
0.013463 0.096270 0.049047 1.966957 3.403757 4.885793 
-0.075571 0.102178 0.036440 -3.486666 1.162257 5.092702 
-0.063485 0.090422 0.045100 -1.579721 0.884271 5.966330 
-0.007035 0.101085 0.044511 1.776670 3.898293 2.059841 
-0.066933 0.125307 -0.008876 -0.019042 0.240505 -6.277258 
-0.011507 0.080144 0.057810 -1.515581 -0.368094 6.067954 
-0.030513 0.107080 0.039642 -0.628013 3.262348 5.332303 
0.042969 0.069628 0.026865 5.366416 -0.332610 3.241002 
-0.030037 0.038333 -0.000014 -0.061560 -6.275937 -0.148407 
-0.066686 0.141706 -0.008936 1.423732 -4.570731 -3.913988 
-0.028528 0.037807 0.026057 0.633935 -6.208015 0.482880 
0.056142 0.049398 0.014190 4.801430 -4.004125 0.286831 
0.045051 0.042396 0.020649 2.672622 -5.430282 1.647548 
-0.005520 0.073242 0.058473 -0.894202 -0.955238 6.104320 
0.031954 0.076649 -0.019704 4.600998 -0.228262 -4.190112 
-0.054494 0.112536 0.035826 0.291718 2.965396 5.490868 
-0.089153 0.121635 0.046529 -4.103554 0.290446 4.733156 
-0.084946 0.081799 0.004489 -5.545310 -1.802433 -2.028740 
-0.024635 0.046414 -0.027267 -1.236506 2.545769 -5.520180 
-0.031002 0.033992 0.010953 0.375691 -1.801012 -0.009239 
-0.014612 0.037790 -0.026645 1.417328 -1.148164 -6.003925 
-0.005070 0.128586 -0.002389 -0.525871 5.932338 -1.990567 
0.052724 0.073671 0.015979 0.093880 6.197759 0.363323 
-0.080339 0.084111 -0.007568 -5.320419 -1.207330 -3.045261 
-0.017112 0.123425 0.029711 -2.508791 4.966124 2.904006 
-0.018052 0.128104 0.010264 -1.651719 6.051030 -0.319567 
-0.000492 0.060590 0.056041 -0.453924 -2.875828 5.405623 
-0.020804 0.125974 0.020961 -2.276344 5.450826 2.034461 
0.003510 0.085658 0.057241 0.581797 0.863670 6.175039 
-0.014391 0.038866 -0.014020 0.240574 -6.252934 0.412464 
0.059727 0.063640 0.020183 5.924669 -0.091296 2.075737 
-0.063764 0.044271 -0.002269 -2.363451 5.266656 -2.382504 
0.008461 0.034173 0.000449 -0.089655 -6.266509 -0.085849 
0.021491 0.036974 0.035259 3.544932 -5.114239 0.850784 
-0.071839 0.063614 0.014015 -4.701050 -4.118897 -0.424056 
0.037395 0.044559 -0.004717 1.174946 -3.031167 -5.361840 
-0.055740 0.054752 -0.002403 -5.753425 0.127744 -2.483039 
-0.056108 0.057106 0.012192 -0.894783 -2.973330 -0.136846 
0.040534 0.105626 0.004164 5.310937 3.211038 -0.923882 
0.039230 0.092699 -0.010086 4.073013 2.853539 -3.837558 
-0.041344 0.159411 0.003256 3.467748 1.330305 4.626623 
-0.033442 0.033566 -0.029736 0.583399 -4.980379 -2.428721 
-0.058773 0.079656 -0.019784 -1.821181 -2.012921 -5.642668 
-0.015502 0.080076 0.056973 0.942505 -0.917086 6.129928 
-0.071892 0.099534 0.039885 -2.878713 2.335761 5.042666 
-0.045191 0.163637 -0.008589 -3.862826 0.802175 -4.886944 
-0.001324 0.096668 -0.030375 0.889541 5.329082 -3.146897 
-0.033292 0.124337 -0.003458 2.392616 5.317009 -2.335853 
-0.057408 0.052165 0.002645 -6.094454 1.389050 0.029417 
0.016880 0.104029 -0.020161 0.941677 4.499957 -4.267067 
0.001440 0.035057 0.018402 -2.845015 -5.340267 1.584941 
-0.055524 0.034463 0.033919 0.199974 -6.275812 0.139935 
-0.020455 0.034798 0.048116 -0.079569 -6.279274 0.091233 
-0.037892 0.033573 -0.026866 0.043102 -6.275949 -0.182005 
-0.091586 0.128175 0.008259 -5.793666 0.693029 -2.314746 
-0.073056 0.163825 -0.039966 -5.422000 -2.395846 -2.043620 
-0.083336 0.105954 0.027112 -4.834812 2.161928 3.376232 
-0.015764 0.035327 -0.026378 0.000000 0.000000 0.000000 
-0.071663 0.145448 -0.019895 -2.651112 -5.069399 -1.687199 
-0.028881 0.124884 0.001951 0.337432 6.066317 -1.421415 
-0.063913 0.111010 -0.013948 -3.263891 1.960554 -4.985606 
-0.089864 0.114175 0.031664 -3.971255 -4.465816 -1.760306 
-0.055835 0.091284 -0.022033 -1.369310 0.316936 -6.090274 
-0.089434 0.095629 0.014422 -6.245637 -0.274318 -0.000798 
-0.034117 0.038314 -0.000825 -0.138733 -2.059622 -0.057655 
-0.020571 0.127392 0.009352 -1.518996 6.085519 -0.346763 
-0.043381 0.120699 0.027830 -0.891729 4.833551 3.909463 
-0.063337 0.061313 -0.000511 -2.181545 -5.742438 -1.188543 
-0.061860 0.153758 -0.018582 6.230506 -0.591015 0.149550 
-0.000498 0.048905 0.050903 -0.779366 -4.512749 4.275752 
0.020501 0.089246 0.048664 -0.059375 1.961249 5.963795 
-0.060505 0.128314 0.040613 2.544679 2.793031 4.999253 
0.047273 0.072062 0.005733 3.659849 4.046126 -2.748089 
-0.086481 0.084610 0.002486 -4.935082 -3.147308 -1.847567 
0.044269 0.097358 0.008165 6.008199 1.824615 0.025517 
-0.062725 0.073729 -0.016541 -1.250622 -3.346140 -5.133689 
-0.070052 0.177913 -0.057016 -3.918980 -1.997082 -4.468581 
-0.064439 0.157952 -0.052618 5.430398 -3.118979 -0.378258 
-0.052496 0.087623 0.045376 -0.713300 0.964680 6.165171 
-0.049725 0.137033 0.003424 5.592546 1.755107 -2.239996 
-0.063697 0.117092 0.044917 5.399840 -2.381523 2.023688 
-0.084789 0.152650 0.025447 -2.447793 5.543163 1.639652 
-0.016169 0.117727 -0.014690 -0.932792 4.623165 -4.105864 
-0.062676 0.177191 -0.057627 0.000000 0.000000 0.000000 
-0.040426 0.041871 -0.024265 -4.042180 3.752976 -2.754347 
-0.079489 0.131664 0.052476 -1.385450 2.079319 5.748086 
0.023344 0.112218 -0.012950 3.116882 2.129661 -5.021388 
-0.008070 0.098836 -0.026711 -0.237909 5.788363 -2.418681 
0.000887 0.036532 0.020587 -3.871518 -4.095801 2.725918 
-0.023713 0.058121 -0.031358 -3.325693 -2.545225 -4.683012 
0.033379 0.047637 -0.006195 -0.007047 -1.053308 -6.156392 
-0.074647 0.151291 -0.028880 -6.015523 1.287241 -1.054237 
-0.010368 0.038806 0.030689 0.007670 -6.268601 0.366589 
0.018500 0.109841 0.039179 1.027726 2.775685 5.535205 
-0.087571 0.097738 0.024527 -5.465236 0.987205 2.923775 
0.023978 0.084017 -0.025064 3.262088 1.087299 -5.226406 
-0.028468 0.071858 -0.033543 -4.704949 -2.191610 -3.535153 
0.028293 0.118599 0.027238 3.398182 4.481752 2.730764 
-0.074709 0.155646 0.009796 -0.767725 6.191258 -0.738105 
-0.011480 0.112753 0.041151 -1.198560 2.959851 5.404483 
-0.048396 0.150684 0.010583 3.818735 -0.152412 4.957367 
-0.047685 0.146264 0.008055 4.318810 -3.075824 3.345483 
-0.003422 0.039114 -0.008321 0.203161 -6.274518 0.113061 
-0.087728 0.095034 0.024752 -5.544734 0.218537 2.945495 
0.009505 0.107102 0.041296 -0.425097 4.079871 4.602422 
-0.056624 0.048251 0.037574 -1.895517 5.879818 1.138848 
-0.062996 0.044494 0.030677 -3.748375 4.468112 -1.960586 
-0.042508 0.093031 0.042490 1.250222 0.648444 6.108195 
0.020494 0.086520 0.049481 1.369639 1.863816 5.827116 
0.017977 0.039378 0.043252 2.979861 -1.428196 5.300141 
-0.012216 0.174205 -0.027665 -3.184095 -2.462799 -4.789003 
-0.074565 0.162191 -0.013252 -3.074013 4.832080 2.575458 
0.010362 0.049481 -0.028102 1.272081 -2.688502 -5.393077 
0.023208 0.044956 0.040349 3.686189 1.006637 4.963567 
-0.069436 0.066827 -0.003570 -3.703004 -3.799122 -3.361223 
-0.027322 0.038344 -0.001292 -0.150226 -6.278666 -0.140234 
-0.068650 0.039576 0.010305 -3.788597 2.520856 4.325397 
0.017575 0.093180 -0.024649 1.395508 2.917270 -5.379475 
-0.009473 0.071773 0.056861 -2.630430 -1.691296 5.363687 
-0.086773 0.103584 0.006389 -5.727616 1.507378 -2.049163 
0.035794 0.069929 -0.014840 4.557507 0.718258 -4.253621 
0.047992 0.042657 0.013500 3.189570 -5.391332 0.407149 
0.000503 0.056275 0.054616 1.728809 -0.142449 5.982385 
-0.060929 0.112535 -0.014753 -2.293862 2.746611 -5.163102 
-0.094512 0.124183 0.022276 -6.228511 0.445971 0.680636 
-0.033491 0.096017 0.044365 -1.390241 0.866033 6.039472 
0.023393 0.047595 -0.019687 2.611516 -4.474669 -3.537025 
0.028068 0.100848 0.040749 2.572577 2.999422 4.864601 
-0.054137 0.134220 -0.003887 2.225338 3.036267 -5.009086 
-0.036666 0.175138 -0.004075 -2.348276 5.236881 2.524816 
0.035369 0.102677 -0.010715 4.595387 1.935313 -3.816409 
0.034227 0.113045 -0.000582 5.109300 3.188060 -1.786921 
-0.063853 0.129717 0.042832 4.712568 2.779829 3.087937 
-0.092285 0.116039 0.022338 -4.872168 -3.689286 1.377491 
-0.025958 0.038326 -0.004690 0.240015 -6.277420 -0.066850 
-0.053452 0.116245 -0.014900 -1.318454 3.120672 -5.286887 
-0.001733 0.108975 -0.021407 2.022180 1.961115 -5.570114 
-0.042764 0.126553 -0.005774 0.983137 5.725997 -2.343715 
-0.068331 0.083333 0.042485 -3.113747 -1.752112 5.160975 
-0.023487 0.043537 0.053602 -0.344489 2.271016 5.810781 
-0.004746 0.071287 -0.035993 1.281330 -0.207603 -6.131116 
-0.031498 0.060338 0.038000 2.397061 -1.080234 5.695333 
-0.084570 0.083188 0.024509 -6.049726 -1.515853 0.420204 
-0.030256 0.060815 -0.021413 -5.738976 -1.709152 -1.861428 
-0.058814 0.034152 0.028250 -0.013481 -6.266793 0.144529 
-0.091463 0.146095 0.018148 -6.195725 -0.007709 -0.673676 
-0.065895 0.166616 -0.059001 -4.957870 -0.266602 -3.811945 
-0.038357 0.036044 0.011220 -1.637241 -2.045015 1.714659 
-0.017377 0.125333 -0.002678 -1.182360 5.723522 -2.302854 
-0.005207 0.038958 0.031615 0.240827 -6.244996 0.457550 
-0.023738 0.065451 -0.034534 -3.655005 -2.455865 -4.472653 
-0.021623 0.045057 -0.028019 0.351427 1.574080 -6.049857 
-0.027123 0.115990 -0.014767 -0.046129 3.676894 -5.062391 
-0.040496 0.057733 0.040281 -0.132866 -1.049844 6.158085 
-0.013583 0.037020 0.051011 1.856035 -0.620074 5.779734 
-0.065693 0.125639 0.048959 4.594438 2.150594 3.685582 
-0.038136 0.171203 -0.011844 -3.722314 2.133226 -4.577861 
-0.086452 0.089965 0.001480 -5.297841 1.530483 -3.007174 
0.040385 0.053379 -0.006735 -0.370565 0.942165 -6.181358 
-0.084865 0.085548 0.026434 -5.626538 -1.799791 2.098002 
-0.023703 0.091176 -0.034887 -2.481425 3.650541 -4.407880 
-0.069985 0.139935 -0.007721 -1.154030 -1.268601 -5.881140 
-0.036657 0.173333 -0.011880 -3.616381 2.883607 -4.225380 
-0.026580 0.037743 0.015705 0.838269 -4.119880 0.300248 
-0.044324 0.057386 0.039257 -2.856733 -0.549374 5.551689 
-0.036686 0.065131 -0.014439 -0.252077 -2.250375 -5.845611 
-0.058855 0.035137 -0.010292 -1.692750 1.233580 -5.855066 
-0.002497 0.097829 0.052428 0.000000 0.000000 0.000000 
-0.051647 0.048127 0.038874 0.588785 5.233659 3.255735 
0.006379 0.037261 0.026487 -3.153610 -3.907712 3.776632 
-0.034906 0.036734 -0.016144 3.135047 -4.095761 3.533053 
-0.008051 0.130356 0.009593 -1.126672 6.173160 -0.308757 
0.024694 0.083583 0.048108 3.896899 1.173786 4.762559 
0.018327 0.047593 -0.022690 3.343184 -1.457447 -4.796738 
-0.018776 0.107692 -0.022040 0.648433 2.852411 -5.434330 
-0.011479 0.093402 -0.035079 0.403513 4.058227 -4.699822 
-0.064232 0.124186 0.047596 5.279841 1.298102 3.113860 
-0.021288 0.063826 0.047145 -5.181165 -1.783703 3.055030 
-0.036624 0.123115 -0.008172 2.445409 4.121861 -3.990147 
-0.049497 0.101524 0.042218 0.450534 3.443832 5.109010 
-0.063534 0.161573 -0.021028 5.021816 3.358342 1.697316 
-0.034486 0.100109 0.042440 -1.866735 2.674464 5.347207 
-0.079297 0.152650 0.002221 -3.431133 4.671448 -2.353632 
-0.038782 0.084171 -0.021953 -1.696329 -0.805980 -5.812080 
-0.089620 0.096982 0.012420 -6.124702 -0.350311 -0.633527 
-0.072842 0.165906 -0.018680 -1.681200 5.383318 2.686597 
-0.022161 0.082528 0.055875 -2.925191 -0.184379 5.541077 
-0.038231 0.036504 0.043656 -4.588416 -0.894757 4.164083 
-0.067901 0.120916 -0.008960 0.011753 -0.319314 -6.258193 
-0.090090 0.119956 0.004302 -5.603101 0.334172 -2.664212 
-0.010506 0.088402 0.056787 -1.815898 0.710832 5.961328 
0.003515 0.063401 0.056629 0.927673 -0.201205 6.184996 
-0.040523 0.128682 0.006436 0.938063 6.165111 -0.608590 
-0.009223 0.174168 -0.028567 0.000000 0.000000 0.000000 
0.044209 0.093145 0.021160 6.120286 1.043430 0.914324 
-0.001658 0.053990 -0.031405 2.364642 -1.942208 -5.470155 
-0.090057 0.133779 0.029217 -5.481620 2.886826 1.024988 
0.006368 0.047998 -0.027694 2.267570 -3.198799 -4.875182 
-0.064490 0.161538 -0.018498 4.776090 3.461511 2.130365 
-0.015480 0.064529 0.053516 -1.160926 -1.015248 5.961737 
-0.019513 0.080052 0.056724 -2.206017 -2.110749 5.452754 
-0.025228 0.126160 0.013505 -1.638119 6.023665 0.662727 
-0.062341 0.164692 -0.043591 6.243511 0.527870 0.144246 
-0.011510 0.129073 0.003989 -1.442048 6.003101 -1.165151 
-0.047825 0.129609 0.027299 5.423929 1.718035 2.551102 
-0.076821 0.080473 0.035515 -3.601495 -2.911861 4.242390 
-0.008497 0.081545 0.057952 0.816774 0.510571 6.184985 
-0.078330 0.108958 0.038442 -1.174498 -6.060489 1.161521 
0.011350 0.055302 -0.029678 1.658420 -0.795171 -6.002243 
0.004312 0.061115 -0.031916 2.980374 -1.574401 -5.238026 
-0.049942 0.135837 0.023495 4.776501 3.763067 1.577373 
-0.061505 0.167821 -0.055568 6.202806 -0.246193 0.511017 
-0.002494 0.050509 0.052683 -1.032377 -4.381745 4.271903 
-0.039750 0.076852 -0.018679 0.293893 -1.975522 -5.955484 
0.041962 0.102841 0.004175 5.789348 2.324664 -0.477608 
-0.067929 0.175140 -0.047072 3.264447 4.578440 2.768171 
-0.042746 0.039302 -0.024290 -4.988934 3.273097 -1.946612 
-0.066530 0.149283 -0.033754 3.396739 -4.974106 -1.651230 
-0.077868 0.101964 -0.009289 0.000000 0.000000 0.000000 
0.003348 0.034649 0.040814 0.091090 -6.270850 -0.276168 
0.007889 0.038654 0.045351 0.910965 0.056864 6.205666 
-0.019883 0.033534 -0.025175 0.217489 -5.985765 -1.193735 
0.008500 0.048821 0.050061 2.308828 -3.253159 4.798737 
0.011483 0.093647 0.051850 1.521724 3.664198 4.843030 
-0.039911 0.033865 0.000216 0.684869 -4.517095 -0.674398 
0.018738 0.067273 0.049897 3.380318 -1.436958 5.083114 
-0.016509 0.044673 0.051334 1.982412 2.544567 5.379273 
0.004669 0.036564 -0.002501 -4.184045 -3.478911 -3.130934 
-0.073275 0.148715 -0.030381 -4.078144 -4.581382 -0.809830 
-0.068654 0.125650 0.051717 3.237424 2.383940 4.801507 
-0.046560 0.122394 -0.011402 -0.171708 4.203186 -4.667130 
0.044939 0.073463 0.022615 5.911896 -0.230253 2.113203 
0.001502 0.091915 -0.033411 2.067742 2.259013 -5.482067 
-0.042758 0.033606 0.001685 -0.058401 -6.270790 -0.358214 
-0.074346 0.168929 -0.026421 -2.655045 5.213740 2.241898 
0.045899 0.041406 0.011234 0.000000 0.000000 0.000000 
0.008255 0.073967 -0.033609 2.623539 -0.986372 -5.609692 
0.026704 0.122545 0.018109 3.954880 4.851494 0.498411 
-0.036606 0.048448 -0.014284 0.000000 0.000000 0.000000 
-0.063353 0.045449 0.000290 0.000000 0.000000 0.000000 
0.000515 0.097140 -0.028850 1.231114 5.323552 -3.093582 
-0.022461 0.122030 0.028486 -2.084324 5.299141 2.643860 
-0.041340 0.171235 -0.008916 -4.074308 3.015176 -3.637485 
-0.008201 0.034493 -0.018128 -0.594450 -5.196020 3.157064 
-0.023665 0.052226 -0.028411 -3.292136 -1.528963 -5.126487 
-0.070834 0.143978 -0.014952 -1.601701 -5.592172 -1.873005 
-0.090348 0.115904 0.006301 -5.335439 -1.950382 -2.648632 
-0.072177 0.146332 -0.024671 0.000000 0.000000 0.000000 
-0.057035 0.129621 -0.006264 2.186653 0.502488 -5.861579 
0.055740 0.057714 0.000186 5.065247 -1.400441 -3.440081 
0.036726 0.079449 0.037305 4.812877 0.455015 3.952342 
-0.046494 0.041170 0.044246 1.141999 1.778961 5.912365 
-0.061498 0.086181 0.044730 0.198563 -1.906357 5.978608 
-0.027450 0.110307 -0.018788 -1.294396 4.041625 -4.605322 
0.041449 0.102860 0.016164 5.727877 2.357099 0.958960 
-0.047009 0.130577 0.002180 4.593924 3.423915 -2.525546 
-0.009910 0.175697 -0.024754 5.239812 2.191377 2.671153 
0.039991 0.084739 0.033286 5.066047 0.453458 3.686497 
-0.079609 0.154132 0.027128 -1.640538 5.819417 1.676287 
-0.051477 0.034453 0.034793 0.100444 -6.241229 0.237740 
0.039158 0.108387 0.012165 5.346193 3.279474 0.254825 
-0.059834 0.124083 0.041570 3.258236 0.611564 5.319991 
-0.092388 0.120024 0.009286 -5.734709 -0.496371 -2.489166 
-0.067235 0.158081 -0.055030 -1.969062 -3.698576 -4.245467 
-0.062412 0.148891 -0.004597 5.951752 1.682529 -0.956316 
-0.014492 0.093841 0.054653 -0.432481 3.806934 4.975412 
-0.070476 0.123201 0.053357 0.996009 0.769465 6.031341 
-0.029390 0.118762 -0.011636 -0.119569 5.165593 -3.574361 
-0.036054 0.039838 -0.029477 -2.017867 1.276086 -5.795604 
0.030220 0.119789 0.010865 4.336882 4.541020 -0.110784 
0.015860 0.094022 0.049426 3.783199 2.949628 3.968251 
-0.022048 0.037971 0.018232 0.283848 -6.242745 0.043313 
0.028985 0.066490 -0.019925 3.595690 -0.780264 -4.717108 
-0.077412 0.159696 -0.024919 -4.110754 -4.116472 -2.215425 
-0.002350 0.125819 -0.007455 1.350536 4.694530 -3.941811 
-0.070146 0.111146 0.043906 2.025544 -5.701988 1.689761 
-0.003576 0.127459 -0.005211 0.107261 5.633904 -2.774639 
-0.062227 0.158391 -0.036604 6.111259 -1.097620 -0.890317 
-0.010274 0.086432 -0.037984 2.171573 2.470591 -5.321798 
0.034768 0.064182 -0.014805 5.122492 -1.331807 -3.373470 
-0.044990 0.166930 -0.007854 -4.128346 2.043916 -4.237461 
-0.065458 0.040395 0.036726 -5.618388 2.279815 1.638472 
-0.011471 0.037932 -0.016323 -0.804965 -4.035955 4.389543 
-0.075860 0.151341 -0.019883 -5.652783 1.357541 -0.595023 
-0.069824 0.144589 -0.017903 -0.729365 -6.064389 -1.353649 
-0.003448 0.111769 -0.020419 1.269683 3.873471 -4.736353 
-0.085802 0.150106 0.007193 -4.935105 2.039457 -3.187449 
-0.025130 0.081077 0.053237 -5.061627 -0.717861 3.516267 
0.017230 0.083490 -0.028582 2.699059 0.126032 -5.661182 
-0.018548 0.038232 0.009666 0.160098 -6.270276 -0.262547 
-0.070351 0.170836 -0.052034 -5.056848 -2.087814 -3.088059 
-0.077226 0.151416 -0.005901 -5.918913 0.033702 -1.896918 
-0.017257 0.181572 -0.025358 -4.196338 0.364939 -4.648152 
-0.050437 0.052968 0.018623 -5.938794 -0.909044 -1.754710 
0.018960 0.036126 0.019186 -1.034047 -1.951878 -1.369891 
-0.026849 0.124528 0.000469 -0.686136 5.991871 -1.744262 
0.014553 0.034758 0.037620 0.518970 -6.241816 0.266023 
0.030718 0.111397 0.032304 4.298314 2.445682 3.835738 
-0.073438 0.145781 -0.013854 -4.811228 -3.754198 -1.417238 
-0.053345 0.118341 0.035073 4.262717 -2.075567 4.113932 
0.006421 0.116423 -0.017442 1.697905 3.732301 -4.758243 
-0.045504 0.159315 0.007265 2.868399 1.228567 5.390829 
0.012571 0.065852 0.053269 1.499596 -1.873997 5.780032 
-0.069914 0.125300 -0.008831 -0.284154 -0.407939 -6.259002 
0.036435 0.037100 0.014563 2.380971 -5.686062 1.155776 
-0.031160 0.169689 -0.016551 -2.718702 0.204742 -5.650560 
0.041085 0.039450 0.005264 2.861223 -5.490588 -1.006472 
-0.093382 0.129671 0.022243 -5.853601 2.146154 0.712576 
-0.029355 0.049545 -0.022456 -3.902153 3.731184 -2.577773 
-0.057442 0.042456 0.021697 -3.153900 4.373485 -3.190842 
-0.045919 0.038241 -0.018283 -5.693741 2.149437 -1.445771 
0.031421 0.039974 -0.002650 1.103994 -4.001611 -4.706797 
-0.058470 0.034461 0.038512 0.009392 -6.278937 0.095970 
0.026271 0.112733 0.034652 2.103711 3.445627 4.813118 
-0.076502 0.121776 0.052772 0.000000 0.000000 0.000000 
-0.010438 0.171321 -0.020552 0.000000 0.000000 0.000000 
-0.069153 0.167331 -0.023101 2.549369 5.307098 2.190332 
-0.078516 0.162478 -0.026942 -6.040708 -1.074939 -0.000467 
0.040673 0.073152 -0.008776 5.210389 0.549997 -3.458695 
0.021502 0.109802 0.038423 1.671487 3.414210 4.996188 
0.013008 0.095623 -0.025242 2.454846 4.301550 -3.850101 
-0.078759 0.163869 -0.028948 -6.084790 -0.420350 0.318169 
-0.049758 0.078260 -0.019072 0.427207 -2.947683 -5.433947 
-0.068756 0.068002 -0.005649 -3.180275 -4.055426 -3.589533 
-0.028619 0.180015 -0.014033 -3.908568 4.022838 -2.739848 
-0.067698 0.156296 0.018092 0.155226 6.272323 -0.141010 
-0.026765 0.075449 -0.036317 -3.405982 -0.532062 -5.237232 
0.029209 0.056377 0.040323 3.010962 -2.274404 5.022355 
-0.031487 0.064617 0.038787 2.524578 -1.312570 5.587776 
-0.021030 0.095862 0.047302 -2.977600 5.026562 2.268754 
0.034347 0.074024 -0.015791 4.974881 0.011392 -3.819927 
-0.020490 0.108532 0.041306 -0.786434 2.760397 5.583508 
0.057836 0.066241 0.003145 5.121067 1.489823 -3.195379 
0.013237 0.070997 -0.031487 1.828367 0.238515 -5.882016 
0.029586 0.120365 0.013479 4.287916 4.585369 0.204761 
-0.017827 0.085538 -0.038846 -1.253095 1.207347 -6.011771 
-0.056812 0.117980 -0.012657 -1.949491 3.892102 -4.513424 
