0.642900 -12.720400 34.593300 0.122221 0.487508 0.864522 
3.139000 15.955900 22.245199 0.458361 0.853052 0.249416 
-5.771700 -11.641600 0.451500 -0.495509 -0.833788 -0.243451 
-5.122600 2.415100 19.246099 -0.997148 0.010526 -0.074736 
-5.369700 8.634200 17.372299 -0.976947 -0.196005 -0.084601 
-5.336100 -8.183500 20.896900 -0.981899 0.188997 -0.012462 
4.593100 -10.231300 25.536699 0.962947 0.125457 0.238733 
4.279800 9.260900 13.322300 0.727696 -0.442333 -0.524213 
3.463300 -16.117701 20.570700 0.657237 -0.748012 0.092288 
1.789100 11.574200 11.528600 -0.939169 -0.147114 -0.310353 
2.955100 14.293600 5.343400 -0.799082 -0.598680 -0.055229 
4.975500 -7.741700 14.542700 0.792436 0.603078 -0.091340 
4.967700 -7.986100 10.946000 0.686002 0.721251 -0.095906 
-4.571200 15.997500 3.499300 -0.556027 0.830782 0.025218 
3.008300 13.755000 7.603700 -0.602690 -0.660142 -0.448305 
-3.836100 15.809600 21.057100 -0.586199 0.802027 0.114559 
-5.721600 -12.247100 17.617599 -0.973577 -0.221193 -0.056760 
-4.337900 -2.685400 15.254600 -0.925265 0.024870 -0.378506 
-2.386400 14.702400 11.914100 0.843609 0.536608 0.019376 
-2.242500 -10.584500 1.121000 0.999958 0.006561 0.006404 
2.636600 -14.577800 14.772200 0.194034 -0.711671 -0.675186 
3.938900 -0.673900 26.014900 0.839088 -0.076465 0.538595 
-5.658500 -9.066000 14.568600 -0.957515 0.286332 -0.034335 
-4.738000 -10.246500 4.181000 -0.495873 -0.866654 -0.054970 
4.613500 -0.980000 16.125700 0.946436 0.031317 -0.321370 
-2.516700 -9.054500 2.876500 0.987410 -0.104934 0.118365 
-1.222300 3.460800 12.573800 0.146240 0.133971 -0.980136 
4.985300 0.682700 17.799299 0.984641 0.025958 -0.172651 
-0.624000 6.666000 13.163200 0.025292 0.158582 -0.987022 
3.270100 -16.443199 24.798599 0.748871 -0.657241 -0.085003 
4.559000 2.499500 16.076099 0.954637 -0.016501 -0.297314 
5.390400 13.279100 12.958500 0.978852 0.203024 -0.025108 
2.882100 -3.319700 12.942800 0.642934 0.031684 -0.765266 
2.039200 14.106500 26.059099 0.484276 0.429173 0.762422 
-5.213800 -0.081100 20.155500 -0.999921 0.012497 -0.001463 
3.681500 7.863000 13.503000 0.685830 -0.315174 -0.655975 
-0.461300 -0.600900 27.845699 -0.070071 0.001340 0.997541 
1.141900 -12.067600 34.058399 0.215903 0.584871 0.781864 
-2.815700 15.708100 3.611600 0.904963 0.425387 0.009394 
-3.230900 14.069700 25.080601 -0.585623 0.534792 0.609133 
-5.064600 6.182900 22.559401 -0.986270 -0.073719 0.147774 
5.509600 -9.163000 20.721300 0.987305 0.150515 0.050730 
4.864400 -14.348600 20.185600 0.873556 -0.475838 0.102363 
5.175300 -10.525800 8.561900 0.793103 -0.583315 -0.175306 
2.057800 -0.903000 12.481800 0.417805 0.019774 -0.908321 
-4.056600 16.580000 6.031400 -0.387535 0.912432 -0.131469 
5.528800 12.455800 1.885400 0.559406 -0.469062 0.683407 
-0.532900 -9.550900 30.885099 -0.069954 0.892063 0.446463 
-4.817100 14.617600 16.510599 -0.819847 0.572429 -0.013231 
4.601000 15.125700 20.305700 0.796292 0.604796 0.011819 
0.787900 -4.124300 12.039700 0.191915 0.023165 -0.981138 
-5.204700 15.301500 4.992300 -0.962189 0.268458 0.046077 
-1.596500 -5.824000 27.360001 -0.312769 -0.181172 0.932391 
-3.661400 2.638000 14.036700 -0.835200 -0.052571 -0.547429 
2.168900 -20.117901 30.779200 0.450962 -0.714846 0.534443 
-4.531100 12.098300 2.474900 -0.040175 -0.184001 0.982105 
2.938800 7.744100 12.962400 0.438149 -0.313829 -0.842340 
3.414500 -12.119900 33.960899 -0.270905 0.819413 0.505147 
-4.203100 -15.566800 26.341400 -0.865866 -0.330315 -0.375723 
0.761500 -10.520200 32.573002 0.100271 0.809668 0.578259 
-4.135500 15.293300 14.728400 -0.515506 0.856484 0.026239 
5.411000 -9.142100 8.658200 0.975992 0.209619 -0.059161 
-5.280900 7.219000 21.214300 -0.995620 -0.071441 0.060310 
5.401700 -13.401000 19.236700 0.930819 -0.362401 0.047349 
-2.620600 -9.802600 6.078700 0.884919 -0.435771 -0.164383 
3.242600 -10.216000 30.266500 0.547617 0.812752 0.198868 
-5.238400 -15.423000 28.992800 -0.988210 -0.147127 -0.042355 
-5.044800 -6.546600 21.533800 -0.993301 0.114663 -0.014317 
-4.911300 -16.667400 29.777500 -0.924719 -0.373668 0.072580 
-0.769000 -5.732500 27.588600 -0.159874 -0.228524 0.960321 
4.967100 -14.281200 18.157600 0.855020 -0.511234 -0.087065 
5.435500 -12.706000 16.148399 0.916405 -0.373039 -0.145067 
1.957100 -17.326500 23.401300 0.509299 -0.856014 -0.088627 
-2.950700 -19.533899 30.513700 -0.753224 -0.648629 0.109245 
0.399600 -3.435200 12.011200 0.089981 0.051881 -0.994591 
-3.076300 -8.361300 27.020000 -0.690764 0.513414 0.509168 
5.665600 -11.725200 0.618700 0.321219 -0.941112 -0.105488 
-4.593800 -7.797600 3.024100 -0.456331 0.889188 -0.033267 
-4.161200 -8.666300 25.696400 -0.824804 0.277328 0.492735 
0.405900 -13.082900 34.808102 0.078578 0.429567 0.899610 
-4.510900 -13.962100 15.728800 -0.694005 -0.636382 -0.336712 
5.567800 -9.597300 20.776100 0.989913 0.114733 0.083115 
-1.011800 35.854198 20.818001 -0.993621 0.091729 -0.065603 
2.625600 6.955900 27.355600 0.529955 -0.045237 0.846819 
-3.838400 -18.327700 30.635099 -0.831014 -0.550736 0.078141 
0.767500 0.996900 12.357900 -0.011588 0.086526 -0.996182 
0.482500 -16.489500 16.457701 0.075394 -0.823833 -0.561796 
5.169000 -13.336400 29.937901 0.984390 0.142511 0.103279 
4.792400 6.625900 16.272900 0.963963 -0.124046 -0.235345 
4.923900 9.404500 14.349500 0.869525 -0.355541 -0.342807 
3.903400 -11.162000 31.497101 0.677714 0.677880 0.284925 
-0.950500 -11.421700 33.552399 -0.138256 0.680717 0.719382 
5.338500 13.461500 12.429500 0.976441 0.214422 -0.024223 
4.440700 -14.991500 20.573700 0.833398 -0.542994 0.102981 
-1.618200 12.923700 13.103400 0.967312 0.214856 -0.134703 
-5.161700 11.558100 23.131300 -0.969415 0.046540 0.240973 
-5.199900 -8.483700 2.831900 -0.927523 0.373156 0.021362 
1.186900 -6.771300 27.531401 0.373392 0.385268 0.843888 
1.124800 22.524401 21.186100 0.790408 -0.058204 -0.609810 
-4.787500 -10.951000 24.822300 -0.988059 0.039135 0.149026 
-3.992200 -15.386500 21.526199 -0.758103 -0.636547 0.141732 
-0.430500 -6.252500 11.987100 -0.126778 -0.027659 -0.991545 
-4.699900 10.441100 12.615900 -0.739967 -0.567677 -0.360819 
2.536500 -8.354600 7.229800 -0.834831 0.550487 0.004538 
0.384400 -3.660400 27.924200 0.103681 0.016540 0.994473 
-0.228400 14.424900 16.801500 0.247125 0.705089 -0.664665 
5.032800 13.599300 22.340200 0.935141 0.280224 0.216760 
-3.733400 3.199000 14.093100 -0.851294 -0.051441 -0.522161 
5.151400 13.885700 21.100599 0.947689 0.303585 0.098594 
5.064600 6.182900 22.559401 0.986271 -0.073718 0.147769 
-4.840600 2.493600 23.507000 -0.980629 0.033556 0.192981 
3.316100 15.904300 10.262000 -0.376687 0.869782 0.318726 
-3.774100 -16.052099 25.830400 -0.831184 -0.471272 -0.295018 
4.669600 11.102000 1.779800 0.094911 -0.851129 0.516306 
-4.703700 14.796000 14.176400 -0.781158 0.623860 0.024300 
3.053300 16.024599 3.125200 -0.586231 0.809298 0.037019 
-3.710100 -8.570900 26.324800 -0.752977 0.411136 0.513802 
-2.847300 14.522600 4.750600 0.905545 -0.424246 -0.001906 
3.019300 -8.984600 27.782400 0.682411 0.558016 0.472159 
-5.625500 -12.047500 15.841900 -0.953781 -0.284013 -0.098172 
4.355200 -1.420400 25.011801 0.927914 -0.091771 0.361322 
5.251500 -13.178800 32.272301 0.911684 -0.406941 0.056837 
-2.867100 -7.997200 7.894000 0.660748 0.749448 0.041707 
1.356900 -18.758801 26.194099 0.224567 -0.669608 -0.707951 
3.107100 -15.921600 17.109501 0.510839 -0.784717 -0.351090 
2.288200 16.042200 23.483400 0.578479 0.783045 0.228479 
-5.314600 -8.948500 2.640100 -0.992378 0.111247 0.053019 
1.452200 1.391700 27.700899 0.234931 -0.001095 0.972012 
2.769000 -11.201200 0.196300 0.149745 0.020203 -0.988518 
-2.295600 -16.672800 18.070000 -0.412780 -0.879004 -0.238674 
-4.880000 -12.094900 33.193001 -0.284581 0.947517 0.145689 
-5.113500 13.500100 2.508500 -0.559843 -0.345470 0.753144 
-5.216500 13.822700 10.631500 -0.983509 0.180245 -0.014898 
-3.282800 -16.016199 17.658800 -0.547607 -0.796568 -0.256136 
-4.262400 15.415900 11.714300 -0.492154 0.856568 0.155162 
5.142200 -13.264100 31.805700 0.961462 -0.128601 -0.243007 
-4.129800 -5.287400 14.685800 -0.929104 0.008961 -0.369710 
-5.498000 -10.882400 21.562901 -0.977636 -0.044824 0.205472 
-5.251700 11.129900 13.004200 -0.899853 -0.366790 -0.236070 
-1.072200 -9.607500 30.871099 -0.133338 0.892811 0.430244 
3.387200 11.101500 1.310300 -0.925290 -0.335849 0.176192 
5.524500 9.729300 19.934799 0.997153 -0.056441 0.050010 
-0.856900 -0.256800 12.259400 -0.045344 0.067677 -0.996676 
2.344800 -9.202800 6.591700 -0.985463 -0.125767 -0.114215 
5.773900 -9.609200 13.920700 0.985242 0.171169 -0.000680 
3.051200 16.377100 8.973900 -0.855722 0.384070 0.346743 
0.000000 16.608000 22.251600 -0.000000 -0.158313 -0.987389 
5.600000 -8.925900 18.310499 0.955616 0.290391 0.049717 
5.593600 14.147700 0.398800 0.475358 0.464794 -0.746995 
2.656000 11.916600 26.640699 0.489927 0.292465 0.821240 
0.879400 36.920700 20.953501 0.985535 0.161603 0.051050 
-6.147000 13.154200 0.753500 -0.940798 0.238611 -0.240756 
-5.231300 9.761300 14.837000 -0.921629 -0.299744 -0.246483 
-4.438500 -15.038300 37.274502 -0.020329 -0.860562 0.508940 
1.205400 10.286900 27.576000 0.147479 0.181625 0.972246 
-3.069900 13.779900 25.462500 -0.572033 0.478888 0.665916 
5.150300 10.261300 23.186701 0.975906 -0.022788 0.216997 
-5.459400 -13.957900 36.565498 -0.725897 -0.646878 -0.233717 
2.454500 -8.532700 5.029700 -0.979619 0.163001 -0.117377 
2.337300 13.068200 1.076000 -0.978874 0.086859 0.185098 
4.024000 -7.633500 9.785200 -0.026127 0.998872 0.039658 
-3.206600 7.337500 13.285900 -0.586507 -0.245058 -0.771982 
4.189200 7.040200 14.508900 0.851681 -0.166371 -0.496951 
3.877700 -6.971200 25.918699 0.708434 -0.066253 0.702660 
-3.718700 15.935200 19.936600 -0.568549 0.820931 -0.053141 
-1.476400 13.122900 14.092900 0.937077 0.262228 -0.230485 
-4.981700 11.641800 11.227200 -0.844974 -0.456268 -0.278998 
-3.247500 -2.688100 13.348500 -0.762323 0.053075 -0.645017 
-3.534200 15.507500 1.408500 0.166176 0.718693 -0.675179 
-4.019600 -7.290200 5.338900 -0.063669 0.974781 0.213890 
0.567400 2.870500 12.566000 -0.041073 0.128411 -0.990870 
3.211400 16.193001 21.081200 0.456845 0.877799 0.144086 
-0.865300 -6.245100 12.069100 -0.228407 -0.025531 -0.973231 
1.220700 -9.794100 12.398000 0.025856 -0.275299 -0.961011 
-1.632900 12.627800 12.491000 0.983057 0.144943 -0.112204 
3.681000 -4.448900 26.022200 0.785188 0.043523 0.617726 
-0.516300 4.975700 27.936800 -0.082427 -0.032905 0.996054 
5.707900 -11.743100 20.137899 0.986897 -0.095465 0.130083 
-1.097500 -9.422900 30.469000 -0.164745 0.893793 0.417124 
-2.977400 -7.926900 3.933700 0.688791 0.717660 -0.102618 
0.877400 -1.781000 27.800699 0.168393 0.003600 0.985713 
4.897900 -7.483600 15.414700 0.846872 0.520494 -0.109062 
-3.636600 14.563500 24.136200 -0.612432 0.606519 0.507013 
0.578700 18.780300 24.686399 0.412674 0.321733 0.852167 
-4.641900 -9.931200 25.191700 -0.964988 0.104368 0.240635 
1.266400 16.401199 19.081301 0.168216 0.916895 -0.361949 
4.981800 -15.070100 31.219101 0.964801 -0.102053 0.242373 
4.325700 15.250100 12.692700 0.592154 0.803506 0.061083 
-3.563700 16.111000 9.949400 0.081786 0.888047 0.452420 
1.865500 -7.902500 27.885099 0.496073 0.507742 0.704350 
3.323100 -16.111099 22.743601 0.757765 -0.648029 -0.076494 
-4.069500 -4.332400 14.546400 -0.904733 0.012480 -0.425797 
-0.493000 2.797000 27.861099 -0.072468 -0.024082 0.997080 
2.648900 -11.719300 33.216400 0.222492 0.638189 0.737030 
-4.878800 -7.936200 6.051300 -0.819568 0.569832 0.060003 
4.554400 1.928400 16.079599 0.952709 -0.008524 -0.303763 
2.598100 -17.075199 24.696899 0.633942 -0.758940 -0.148752 
0.375200 -5.247400 27.763901 0.085501 -0.230198 0.969380 
-4.728700 7.554300 24.450701 -0.946152 -0.059618 0.318187 
4.317200 9.596600 13.069400 0.706270 -0.501743 -0.499436 
-3.952300 -10.792000 7.171100 -0.075026 -0.974542 -0.211281 
0.000000 -9.530700 30.890600 -0.000000 0.892795 0.450464 
-1.194800 16.602800 21.545099 0.051405 0.994683 0.089235 
2.641800 14.989500 3.356600 -0.992853 0.009828 0.118940 
1.341300 12.087100 13.824800 -0.964807 0.132795 -0.226966 
-4.880800 -14.159600 17.208300 -0.820841 -0.539471 -0.187593 
3.123500 7.513100 27.022699 0.645440 -0.039860 0.762770 
1.916900 16.348801 23.212400 0.689819 0.710608 -0.138515 
-0.407700 -19.069599 26.206301 -0.127888 -0.595141 -0.793380 
2.193500 14.358100 11.819600 -0.896284 0.443475 -0.002245 
-4.528500 14.047900 5.697500 -0.529248 -0.848054 -0.026473 
1.100200 12.155500 27.144600 0.179421 0.274439 0.944718 
-2.299700 16.205099 22.778799 -0.377217 0.905119 0.196129 
0.765100 32.304600 19.998800 0.705757 -0.009000 -0.708397 
5.022700 -7.192900 23.655701 0.977161 0.113956 0.179363 
5.200100 -8.502700 4.084000 0.924761 0.380270 -0.014519 
0.476300 -11.405500 33.599602 0.059211 0.690635 0.720775 
4.414000 -2.748600 24.535400 0.943464 -0.038473 0.329236 
-5.484100 -8.524800 12.657600 -0.894024 0.443562 0.063034 
2.431500 -1.514200 12.675300 0.554417 0.028272 -0.831759 
-1.332700 13.453200 14.913000 0.890330 0.310209 -0.333291 
-4.967100 -14.281200 18.157600 -0.855020 -0.511234 -0.087065 
5.086600 -4.038100 18.525499 0.993040 -0.059904 -0.101404 
5.396600 -12.125000 14.603100 0.856012 -0.468623 -0.218258 
-3.151500 -1.291100 26.832399 -0.633063 -0.074516 0.770505 
-4.407300 14.221000 23.407200 -0.786723 0.480724 0.387262 
5.160100 4.262500 20.297600 0.999829 -0.014218 0.011836 
-0.842300 15.618500 25.936600 -0.303471 0.395362 0.866946 
0.162300 -17.936899 34.825802 0.010467 -0.434137 0.900786 
3.045000 -19.178801 32.577000 -0.118511 -0.827582 -0.548692 
5.395700 8.378200 20.592600 0.996008 -0.074470 0.049224 
5.449300 -11.720200 13.909500 0.834474 -0.505830 -0.218606 
2.730700 -8.128700 27.236300 0.657845 0.523000 0.541951 
4.106500 -11.262300 31.187700 0.747431 0.617500 0.245033 
-1.911000 10.724600 11.801200 0.760858 -0.399118 -0.511664 
3.930300 -5.840500 25.863501 0.757712 0.052682 0.650460 
-2.498200 9.584500 12.154800 0.452045 -0.444037 -0.773619 
5.114800 -8.303500 2.765200 0.865781 0.500321 0.010108 
5.511400 -12.338000 20.831800 0.965084 -0.183066 0.187348 
-4.331600 2.604200 25.273899 -0.926935 0.044028 0.372630 
5.593000 -12.431500 16.643101 0.952177 -0.288871 -0.099559 
4.954200 4.803500 17.650200 0.985530 -0.024294 -0.167752 
2.937500 -19.554600 29.434900 0.796310 -0.593195 -0.118364 
-4.725100 -15.060100 27.130301 -0.884016 -0.204789 -0.420211 
-5.168400 -13.121600 28.674700 -0.986912 0.152532 -0.052342 
4.221200 -7.638700 9.211400 0.234943 0.971717 0.023813 
-4.239100 15.820100 10.246600 -0.545277 0.789173 0.282630 
-1.205400 10.286900 27.576000 -0.147479 0.181625 0.972246 
0.000000 24.559700 20.233999 0.000000 -0.128170 -0.991752 
2.255100 -11.670300 33.329700 0.312710 0.599035 0.737136 
-0.589400 -18.726900 25.954599 -0.169246 -0.707921 -0.685714 
-4.349100 -10.363400 26.480101 -0.925222 0.250426 0.285047 
2.684000 -18.828300 27.511400 0.610786 -0.658411 -0.439813 
-4.069500 13.851600 24.347300 -0.720105 0.469098 0.511269 
-4.888100 -2.181800 22.781700 -0.981685 -0.054069 0.182675 
-4.786900 -13.739700 22.370100 -0.920973 -0.344441 0.182126 
-2.656000 11.916600 26.640699 -0.489931 0.292440 0.821247 
5.171900 -13.707400 17.340500 0.878060 -0.456575 -0.143355 
-5.131300 3.667600 20.963800 -0.998362 -0.000427 0.057216 
-5.306900 13.626200 13.552700 -0.954027 0.299670 -0.005528 
1.614800 -12.488700 13.443300 -0.011763 -0.399112 -0.916827 
-0.767700 -11.500100 13.065900 0.054042 -0.402441 -0.913849 
-3.670800 -12.800600 0.713700 0.023298 -0.969501 -0.243978 
4.893100 -6.419500 23.864100 0.978283 0.114109 0.173038 
1.653400 13.977000 14.684100 -0.842847 0.469772 -0.262531 
5.099700 -15.137700 30.691700 0.975422 -0.085876 0.202921 
3.912800 9.082600 13.007200 0.658418 -0.450877 -0.602658 
-3.344100 -11.030600 8.493600 0.264493 -0.942211 -0.205625 
-3.297300 -12.593800 1.313200 0.837351 -0.516571 0.178880 
-5.141800 -0.588900 18.672001 -0.994044 0.018839 -0.107335 
3.570600 -11.425200 2.356400 -0.438134 -0.148583 0.886545 
-4.973500 5.009300 22.677200 -0.987443 -0.038323 0.153260 
-5.608900 10.637800 18.595100 -0.999570 -0.015110 0.025143 
1.062700 12.546100 27.036100 0.187529 0.279837 0.941554 
4.201200 12.533900 24.992399 0.782476 0.250253 0.570179 
5.191500 5.453300 20.188299 0.999199 -0.039777 -0.004433 
-5.198100 -0.121200 20.808599 -0.998843 0.003895 0.047941 
2.280300 3.379800 12.713800 0.418716 0.073059 -0.905174 
4.601000 -11.459100 0.092800 -0.383012 0.144463 -0.912377 
4.144300 8.452700 13.727400 0.754932 -0.358482 -0.549153 
-4.530300 -15.022800 18.932400 -0.810383 -0.585612 -0.018358 
-1.202100 15.307500 17.291901 0.427503 0.791570 -0.436644 
-0.949000 -19.753799 33.183998 0.130202 -0.797146 0.589581 
-4.274500 11.531800 25.245501 -0.818910 0.158784 0.551520 
-4.890300 -0.817400 23.253201 -0.980974 -0.060982 0.184314 
-5.344100 -9.159500 7.257400 -0.989233 0.140486 -0.040999 
-3.849400 16.804300 7.046500 -0.205340 0.964290 -0.167276 
1.330400 24.028900 21.422899 0.927351 -0.022062 -0.373542 
-4.753700 -11.962700 27.614500 -0.913475 0.367631 -0.174388 
-0.686500 35.157299 19.929300 -0.740825 0.017832 -0.671461 
-4.755500 -12.962900 26.332600 -0.996937 -0.006872 -0.077908 
2.983600 -16.495001 22.876101 0.698787 -0.709849 -0.088381 
-1.798900 13.310300 12.123100 0.967415 0.245082 -0.063581 
0.515800 12.968200 26.996099 0.096370 0.273235 0.957108 
3.959200 15.222000 1.131800 -0.063185 0.587827 -0.806516 
-5.012700 7.934000 16.114901 -0.945509 -0.242622 -0.217134 
-1.547100 20.524500 22.565701 -0.998772 0.041396 0.027213 
3.806100 15.679800 18.279600 0.516746 0.848844 -0.111525 
-1.191800 8.436400 13.398600 0.305186 0.129579 -0.943436 
-2.491000 15.260000 8.741900 0.942529 0.320016 0.096063 
2.507200 14.394600 2.047400 -0.973977 -0.113652 0.196092 
-3.014400 -10.803200 0.306600 -0.036037 0.038873 -0.998594 
5.421700 9.627300 21.202000 0.993794 -0.049361 0.099682 
-0.187300 -20.192600 26.934601 -0.060084 -0.507832 -0.859358 
-3.053900 -19.131300 32.040600 0.629295 -0.527561 0.570672 
2.727000 -1.265200 27.134899 0.525018 -0.061418 0.848872 
-5.260300 13.103900 21.781300 -0.969798 0.192052 0.150359 
5.611000 -10.028400 20.797400 0.990589 0.074192 0.115018 
-0.355900 35.637901 19.691299 -0.416875 0.019410 -0.908757 
2.193400 -9.029400 8.564000 -0.964874 0.259055 -0.043683 
-3.961300 -10.992100 30.914400 -0.704179 0.670378 0.233934 
3.996500 -12.216400 2.189400 0.171772 -0.588283 0.790201 
-5.418400 8.406500 20.007099 -0.995353 -0.094393 0.019059 
-5.116700 -13.141700 33.039799 -0.529285 -0.848030 -0.026519 
-3.254300 -7.488700 4.922500 0.582713 0.808060 -0.086516 
-0.993500 10.629200 14.412200 0.703674 0.305440 -0.641521 
0.532900 -9.550900 30.885099 0.069954 0.892063 0.446463 
-5.032800 13.599300 22.340200 -0.935141 0.280224 0.216760 
2.878100 -11.015300 2.010000 -0.268236 -0.327847 0.905851 
-4.676900 15.151900 1.048800 -0.027212 0.731848 -0.680925 
2.377000 14.885000 14.495100 -0.708716 0.694239 -0.125515 
-4.899700 -16.738100 29.387501 -0.919306 -0.393530 0.003266 
-4.312700 -11.982800 33.619099 -0.331769 0.902706 0.273956 
1.050800 5.694700 27.890600 0.175842 -0.027353 0.984038 
-5.868100 -10.104000 16.402599 -0.997845 0.064241 -0.013333 
4.657600 4.796200 16.224600 0.966054 -0.034672 -0.256001 
4.714500 -13.302400 23.901699 0.981432 -0.191351 0.013227 
5.192600 -8.570100 7.955300 0.915105 0.402585 -0.022548 
-2.515600 2.182900 12.797700 -0.581259 0.010751 -0.813648 
5.034500 4.348700 22.096901 0.993053 -0.015096 0.116695 
-0.338400 -19.451200 33.595501 0.016128 -0.810870 0.585004 
-3.587300 16.570101 5.491100 0.081453 0.984762 -0.153652 
-3.659700 -11.236900 9.180600 0.103534 -0.970950 -0.215723 
4.866800 -1.635100 16.950600 0.971636 0.016938 -0.235875 
-0.577400 6.195600 13.088200 0.027974 0.161165 -0.986531 
5.165100 -2.071900 20.904499 0.995965 -0.026793 0.085645 
4.994300 -11.361400 11.029500 0.542479 -0.818750 -0.188054 
-4.708500 -13.349000 15.027700 -0.712292 -0.607737 -0.351136 
0.390800 -6.667100 27.700399 0.136410 0.459527 0.877626 
4.892500 -6.139400 18.418800 0.996079 -0.016413 -0.086937 
-1.421000 -17.576000 22.386900 -0.450430 -0.892764 0.009235 
-3.461200 15.845200 22.010500 -0.512745 0.825162 0.237065 
-0.450400 -1.204300 27.848499 -0.075142 0.005533 0.997158 
-2.805000 -8.178700 2.613700 0.714230 0.699695 -0.017381 
-2.781800 8.843000 27.259001 -0.523425 0.069384 0.849242 
5.236600 6.653900 21.244699 0.995436 -0.074455 0.059701 
-2.648600 14.808100 6.649400 0.978014 -0.185531 -0.095221 
1.765900 10.763800 27.362101 0.259775 0.214787 0.941479 
-0.484600 -13.987400 14.386700 0.127435 -0.544231 -0.829200 
-1.412600 -16.479500 16.736700 -0.240828 -0.851424 -0.465917 
3.556800 11.691600 26.037500 0.666952 0.242939 0.704384 
3.471200 -9.519900 27.680099 0.767071 0.519223 0.376840 
3.534700 -0.905600 13.927700 0.833415 0.049897 -0.550390 
0.823300 -2.811400 27.828699 0.192726 0.027006 0.980881 
-1.004100 22.893801 23.101700 -0.730131 0.160362 0.664223 
5.202200 0.550000 20.112801 0.999730 0.020796 -0.010389 
-5.867700 -11.051800 16.818701 -0.996062 -0.081603 -0.034656 
-2.928800 -6.599800 26.661100 -0.490609 -0.100002 0.865622 
1.778400 -19.777901 31.931801 0.152943 -0.988167 -0.011568 
-3.749200 1.357700 26.372499 -0.769017 0.018756 0.638954 
5.334400 -12.959900 20.978800 0.943940 -0.275513 0.181850 
-5.095900 1.784500 21.795300 -0.995464 0.024000 0.092068 
-0.482900 1.378600 27.843300 -0.066215 -0.004378 0.997796 
2.416600 14.764900 13.012200 -0.796436 0.603596 -0.036909 
-5.683000 -9.300600 11.551800 -0.977944 0.190545 -0.085545 
3.723000 0.695800 26.412500 0.760942 -0.006020 0.648792 
2.451000 13.989600 1.455700 -0.997955 -0.014390 0.062285 
2.108400 -11.335400 33.107300 0.299352 0.646011 0.702181 
-3.567600 16.656401 6.048000 0.086340 0.983528 -0.158804 
-1.465300 -17.868799 34.722801 -0.186000 -0.413575 0.891269 
4.471300 15.885600 9.427400 0.858891 0.452161 0.240535 
5.304900 -12.628400 15.308000 0.861954 -0.458850 -0.215621 
-5.093000 -13.342800 30.612101 -0.989096 0.109229 0.098785 
0.364600 34.093800 19.687099 0.410280 -0.007491 -0.911929 
0.000000 -3.239900 27.928301 0.000000 0.039294 0.999228 
-2.468400 13.623500 1.531700 0.966330 0.011674 0.257041 
-3.215800 -11.941900 0.272000 0.849300 -0.087443 -0.520618 
4.239100 16.112499 2.143100 0.104132 0.809943 -0.577190 
-5.000600 -16.408899 28.888700 -0.940299 -0.320642 -0.114134 
-5.864600 -11.437500 18.214300 -0.996375 -0.084836 0.006300 
4.574500 -13.514800 36.471500 -0.201386 0.797031 0.569373 
-4.603900 15.010400 18.394100 -0.770376 0.635518 -0.051369 
5.134400 5.422100 19.009100 0.996077 -0.027955 -0.083957 
5.187400 6.615300 18.985300 0.993596 -0.079436 -0.080359 
4.769100 2.467500 16.874599 0.974249 -0.002788 -0.225456 
-0.810800 -21.574100 28.422300 -0.614647 -0.774302 -0.150553 
-4.597400 3.638200 16.133400 -0.962860 -0.027433 -0.268603 
-1.318400 9.709800 13.347300 0.903260 0.001238 -0.429092 
2.738000 6.863100 13.102000 0.444917 -0.137011 -0.885029 
5.865600 13.852900 0.581600 0.860317 0.348208 -0.372298 
-0.588600 19.488800 21.398300 -0.387050 -0.262430 -0.883925 
-3.181300 8.131000 26.995899 -0.646392 -0.004130 0.762994 
4.938300 -1.511900 22.726101 0.984090 -0.058034 0.167927 
4.024500 -3.244400 14.513700 0.895520 0.034942 -0.443648 
4.040800 13.543000 7.495400 0.138840 -0.826926 -0.544901 
2.829900 -12.000700 0.408800 0.362692 -0.763866 -0.533820 
-4.882500 -12.525900 34.543098 -0.303588 0.886254 0.349841 
-4.024500 -3.244400 14.513700 -0.895520 0.034942 -0.443648 
-2.228900 -13.890300 34.853699 0.552414 0.372492 0.745713 
-4.516400 14.981600 16.485201 -0.714534 0.699133 -0.025566 
-1.780400 17.415600 23.577700 -0.987143 0.159723 0.006141 
-3.281400 -15.542700 16.614100 -0.539312 -0.732721 -0.415044 
-3.392900 -2.560800 26.453199 -0.718808 -0.078381 0.690776 
-1.154700 -4.097900 27.753500 -0.295182 -0.034838 0.954806 
-2.571800 2.776300 12.847400 -0.565413 0.021547 -0.824526 
-5.149700 -7.159700 21.640900 -0.982905 0.183109 -0.019212 
5.879500 -10.556600 18.292000 0.998322 0.044312 0.037265 
3.838400 -18.327700 30.635099 0.831014 -0.550736 0.078141 
-4.110700 -6.179000 25.657499 -0.802126 0.031572 0.596320 
2.610200 13.680800 1.892400 -0.864183 -0.206063 0.459049 
1.201900 -4.807800 12.137000 0.271741 -0.003025 -0.962366 
4.829100 -0.106800 23.768900 0.975984 -0.039858 0.214165 
-2.932200 15.791700 17.112700 -0.033240 0.975168 -0.218958 
6.206200 13.166900 1.413800 0.963324 0.124258 0.237839 
-1.600900 6.379300 27.783899 -0.278760 -0.027565 0.959965 
-5.585800 -12.846400 18.007999 -0.954362 -0.293822 -0.053502 
2.975400 -10.342900 0.331300 0.006482 0.075581 -0.997119 
2.503600 14.123500 0.847400 -0.916761 0.325855 -0.231013 
5.114100 9.164800 15.133100 0.911482 -0.301802 -0.279493 
5.815200 -11.058400 15.532700 0.990687 -0.129641 -0.041614 
-3.277000 -9.923700 28.931801 -0.642384 0.730640 0.231316 
-5.618900 -9.778500 0.329500 -0.660595 0.346006 -0.666254 
-4.812700 -13.035600 14.706800 -0.717547 -0.594942 -0.362175 
-5.476500 9.049100 19.964899 -0.996089 -0.079578 0.038387 
-4.707000 2.527500 24.107401 -0.970768 0.038066 0.236982 
-4.271000 -4.680200 25.161501 -0.887928 0.112191 0.446090 
-0.723700 -17.785999 20.947901 -0.239437 -0.959617 -0.147666 
-3.842900 -13.320300 13.981200 -0.325593 -0.635197 -0.700367 
3.148300 15.423100 14.162500 -0.352441 0.935600 -0.020933 
-2.463300 13.063500 0.459200 0.771365 0.065288 -0.633035 
4.172700 15.275700 16.462299 0.574310 0.817516 -0.042854 
-3.076200 -9.428100 0.497400 0.117227 0.382512 -0.916484 
0.000000 8.426400 27.902399 0.000000 0.087304 0.996182 
2.179800 -8.991000 1.551300 -0.839272 0.490094 0.235436 
3.182500 16.889799 8.356300 -0.653829 0.755695 0.037854 
1.849700 -6.803500 12.403200 0.369402 -0.016308 -0.929127 
-4.841000 -13.051100 26.860300 -0.968440 0.068491 -0.239650 
-2.740600 8.229100 27.317801 -0.526640 0.020040 0.849852 
1.328100 29.857700 21.092100 0.995939 0.014023 -0.088930 
5.022900 -15.527300 28.015699 0.917211 -0.211228 -0.337797 
-3.330300 -10.174300 29.817400 -0.582773 0.794884 0.168921 
4.729000 1.239800 24.219601 0.968224 0.022734 0.249050 
0.543700 6.391200 27.965599 0.075829 -0.004384 0.997111 
4.429300 -13.227700 36.005901 -0.157821 0.821982 0.547210 
-3.546400 16.743799 6.593300 0.094547 0.981552 -0.166185 
-4.710100 -13.404900 26.130699 -0.989966 -0.113500 -0.084175 
0.352100 -8.905100 12.102500 0.073508 -0.157167 -0.984833 
2.349300 14.600800 8.851000 -0.988684 0.093936 -0.116960 
4.830700 3.144300 23.458200 0.980555 0.023463 0.194838 
-0.267000 21.677299 20.740900 -0.204887 -0.199523 -0.958234 
0.953000 16.186001 18.545401 0.170616 0.739884 -0.650739 
4.193400 15.298700 17.082300 0.601027 0.796987 -0.059821 
1.370500 -19.952900 31.566799 0.616831 -0.451664 0.644608 
-0.731200 26.672100 20.364901 -0.686062 -0.082950 -0.722799 
-0.848800 18.749701 24.530800 -0.572847 0.306193 0.760324 
5.108900 -11.468000 0.217300 0.745006 0.244851 -0.620495 
5.079300 -13.373400 30.800200 0.993933 0.081610 0.073729 
2.589200 11.586800 0.595700 -0.687039 -0.686184 -0.239016 
-2.707500 -19.333900 32.382500 -0.605474 -0.795330 0.029187 
-5.837800 -9.915500 15.512500 -0.995946 0.087583 -0.020537 
-3.811900 6.687000 26.186899 -0.813904 -0.063709 0.577495 
4.765300 12.065600 24.187700 0.907352 0.141067 0.395996 
4.213300 15.334700 17.709000 0.625232 0.777213 -0.070888 
5.000400 -8.154900 6.092200 0.884817 0.464479 0.036854 
-4.777000 14.825000 12.129100 -0.821430 0.566711 0.063962 
-3.787300 -16.455601 26.338600 -0.773637 -0.447366 -0.448720 
-2.049200 14.799600 15.338600 0.656394 0.687927 -0.309683 
-4.839100 -3.342200 16.857700 -0.973689 -0.024543 -0.226556 
4.593800 -7.797600 3.024100 0.456331 0.889188 -0.033267 
4.186300 -14.869900 23.270201 0.891995 -0.451785 -0.015343 
5.211700 -14.690400 30.210699 0.988826 -0.030714 0.145873 
-1.362600 -17.542000 34.876301 -0.142281 -0.350972 0.925513 
-1.295500 -17.515301 20.451500 -0.382366 -0.918245 -0.103067 
2.541400 -16.420099 17.600201 0.420876 -0.861662 -0.283553 
0.000000 -6.101400 27.582399 -0.000000 -0.084518 0.996422 
5.126100 0.026900 18.658100 0.993458 0.024757 -0.111484 
-4.945600 2.464000 22.905100 -0.988048 0.028908 0.151414 
-4.660700 -11.995400 32.738998 -0.335292 0.942098 0.005486 
5.438000 13.190800 15.867200 0.970259 0.241880 0.009586 
5.182100 -1.426600 20.880600 0.997072 -0.019295 0.073999 
-5.259200 -13.835000 29.574900 -0.993385 0.092082 0.068606 
-1.955800 2.095400 27.550699 -0.340948 0.001114 0.940081 
-5.348700 13.503900 14.092700 -0.957889 0.287040 -0.007575 
0.816200 -18.797100 34.255100 0.059917 -0.622865 0.780032 
5.311500 -14.411600 29.089100 0.999993 0.002337 0.002828 
3.461200 15.845200 22.010500 0.512745 0.825162 0.237065 
2.659400 6.400100 13.107200 0.437101 -0.041647 -0.898448 
-5.574200 -11.376900 21.088900 -0.977993 -0.063888 0.198614 
-3.776900 15.482400 12.719800 -0.144308 0.988830 0.037296 
5.042200 -1.720400 17.810600 0.986227 0.008857 -0.165161 
1.857400 -11.564300 33.411800 0.286410 0.624199 0.726874 
-2.302400 6.422900 12.968000 -0.245893 -0.005534 -0.969281 
-4.031600 -7.389100 4.473100 -0.094474 0.912109 -0.398913 
-3.991500 -14.566900 15.929300 -0.595547 -0.701007 -0.392316 
3.377000 -4.431400 13.379300 0.751847 0.024268 -0.658891 
-1.241500 11.965100 14.187300 0.961163 0.116286 -0.250287 
-2.966100 -7.842300 6.589500 0.644865 0.762916 0.045911 
-1.995500 16.619499 19.976000 -0.075031 0.983814 -0.162730 
-2.622300 -7.332800 12.764600 -0.471336 0.045388 -0.880785 
-4.964300 1.179000 23.044201 -0.988204 0.020196 0.151807 
-5.175600 11.982300 11.375400 -0.919882 -0.323092 -0.222328 
-4.388500 -11.892000 33.035000 -0.433030 0.894353 0.112329 
-4.926300 -12.099700 29.303101 -0.934066 0.349637 0.072623 
-2.972400 -9.928800 3.611600 0.766088 -0.641957 0.031614 
3.611600 12.718300 8.461900 -0.076585 -0.738908 -0.669440 
-3.107800 -15.602500 36.051102 0.503720 -0.582778 0.637680 
-2.026700 -10.688500 12.388200 0.692899 -0.500673 -0.518862 
5.134200 2.410800 21.135300 0.997931 0.018928 0.061445 
5.426200 8.451100 19.411600 0.993057 -0.117387 -0.007561 
2.929500 3.460400 27.033701 0.586292 0.014577 0.809969 
2.942600 -16.777000 24.747101 0.690158 -0.714373 -0.115550 
-4.855600 -14.019600 16.741800 -0.801326 -0.554510 -0.224488 
-1.953300 -18.305000 26.003201 -0.509908 -0.665500 -0.545072 
5.221600 14.254700 2.811300 0.822892 -0.368112 0.432830 
-1.942000 -21.190599 28.714500 -0.763814 -0.534314 -0.362072 
2.164000 -2.407800 27.366400 0.431767 -0.041513 0.901029 
4.663900 -11.651100 27.913900 0.883360 0.446809 -0.141556 
-3.634600 16.351900 3.996000 0.094792 0.983715 -0.152706 
0.932400 14.428800 26.436899 0.262062 0.367270 0.892433 
3.860900 -10.324900 28.098301 0.824992 0.529013 0.198829 
4.754600 5.731200 23.924101 0.964313 -0.053673 0.259267 
-4.553200 -7.519600 12.494300 -0.401941 0.913295 -0.065850 
5.056500 -16.277599 29.642799 0.958708 -0.278880 0.055726 
2.589800 -10.002600 0.405500 -0.641769 0.233103 -0.730613 
-0.362000 27.291599 20.022600 -0.442543 -0.097492 -0.891432 
0.000000 4.245500 27.929501 0.000000 -0.037792 0.999286 
-4.306900 13.892500 4.174600 -0.395565 -0.911590 0.111947 
-3.486100 -11.746900 11.753100 0.260413 -0.944463 -0.200434 
-4.569900 15.502200 10.063100 -0.838147 0.527921 0.137146 
3.379400 5.904100 13.610800 0.678482 0.009757 -0.734552 
-5.216500 -1.363700 20.204100 -0.999777 -0.007712 0.019673 
4.694200 -17.134800 29.106501 0.870740 -0.487699 -0.062938 
3.269300 11.658100 1.388400 -0.946128 -0.274911 0.171071 
3.228700 14.338900 0.580300 -0.110654 0.435843 -0.893195 
5.600500 11.342900 14.976800 0.995707 -0.066163 -0.064728 
-2.818500 -15.080400 15.453500 -0.344056 -0.748573 -0.566802 
-4.000900 -15.370100 35.913502 -0.702989 -0.710979 -0.017774 
-5.171100 12.974200 22.400299 -0.960233 0.188346 0.206102 
4.279800 8.343800 25.602900 0.879391 -0.026538 0.475360 
5.282900 -8.222000 11.776300 0.817002 0.568632 -0.095731 
2.965000 -4.515400 12.974300 0.637315 0.011516 -0.770517 
5.174800 -7.604500 19.724400 0.969284 0.243058 -0.037557 
-4.399700 -5.658000 15.489600 -0.962010 0.016832 -0.272494 
4.776000 1.891000 16.893900 0.972986 0.006180 -0.230780 
0.584800 23.885099 20.541401 0.554494 -0.093229 -0.826949 
-1.871800 -20.568899 30.577999 -0.650603 -0.518337 0.555016 
5.206700 15.171600 5.399900 0.992242 0.104889 0.066734 
-0.539600 9.652000 14.049400 0.173491 0.494970 -0.851414 
3.635000 -2.672500 13.881700 0.838706 0.055757 -0.541723 
-1.132700 -17.193501 18.364599 -0.233940 -0.932108 -0.276492 
-3.580000 -16.066601 19.362900 -0.642665 -0.765707 -0.025983 
-1.731500 -17.408400 22.177799 -0.511453 -0.859311 0.001156 
-5.135400 -14.604800 27.888800 -0.939737 -0.102858 -0.326060 
-5.150900 3.023900 19.844999 -0.999563 0.002752 -0.029439 
-2.852600 15.715300 9.517900 0.832280 0.526284 0.174170 
-1.388400 -0.602100 27.706100 -0.235581 -0.014067 0.971753 
0.647100 37.763699 21.200899 0.890594 0.304380 0.337929 
4.728700 7.554300 24.450701 0.946152 -0.059618 0.318187 
3.131100 -8.016500 10.325400 -0.542209 0.837223 0.071189 
0.000000 16.352600 18.696301 -0.000000 0.833326 -0.552782 
4.574600 -7.770600 7.929500 0.569168 0.821330 0.038262 
-5.137800 -2.978700 18.601299 -0.994881 -0.024519 -0.098035 
1.355900 -1.215000 27.704201 0.245008 -0.015860 0.969391 
-4.012000 14.189100 0.422800 0.076013 0.475491 -0.876430 
2.177300 -18.797300 26.822701 0.594184 -0.625831 -0.505253 
0.624000 6.666000 13.163200 -0.025292 0.158582 -0.987022 
1.183900 -19.836700 31.909500 0.797607 -0.552139 0.242829 
-3.330300 -3.568200 26.429399 -0.723035 -0.037389 0.689799 
5.161700 11.558100 23.131300 0.969415 0.046540 0.240973 
4.093800 -7.450000 6.183100 0.144868 0.983912 0.104552 
-3.253300 10.382800 26.688200 -0.623055 0.170838 0.763293 
4.982400 -7.664300 24.029200 0.958828 0.062178 0.277097 
5.430400 -8.360700 17.256300 0.920251 0.391064 0.014386 
-5.322500 -9.482500 6.638400 -0.992282 -0.109311 -0.058552 
-4.317200 9.596600 13.069400 -0.706270 -0.501743 -0.499436 
-2.582100 -19.772200 28.755301 -0.744070 -0.596826 -0.300264 
3.661400 2.638000 14.036700 0.835200 -0.052571 -0.547429 
4.276900 5.380900 14.975400 0.921335 -0.035460 -0.387149 
5.063300 1.831200 18.540501 0.992619 0.019159 -0.119754 
-5.556900 -8.644800 16.769600 -0.933800 0.357678 0.009181 
4.964100 8.501400 15.343600 0.913395 -0.283429 -0.292194 
5.001900 10.753900 12.817800 0.822110 -0.483482 -0.300634 
-5.792100 -9.545100 15.474200 -0.986790 0.160694 -0.020568 
-2.727000 -1.265200 27.134899 -0.525019 -0.061418 0.848872 
5.465100 12.282600 12.762000 0.993315 -0.047384 -0.105260 
1.477700 2.809700 27.703400 0.253734 -0.014731 0.967162 
-1.238300 -22.006901 30.009800 -0.440378 -0.892041 0.101638 
-5.983600 -10.012400 1.396300 -0.950960 0.264755 0.159939 
-4.576300 7.730100 14.939100 -0.886955 -0.248307 -0.389429 
-3.619100 -15.136400 36.742001 0.612932 -0.210452 0.761593 
-3.783500 -17.565800 27.376400 -0.697886 -0.528228 -0.483665 
-3.400900 15.507200 15.262300 -0.007716 0.998917 -0.045874 
4.073900 13.816900 4.202100 0.223197 -0.966009 0.130421 
0.427000 36.940201 19.805500 0.623183 0.104779 -0.775025 
-5.410800 -13.327900 17.916100 -0.926415 -0.368715 -0.076190 
-4.670000 -12.105800 33.543400 -0.327858 0.913938 0.239221 
0.856900 11.011300 14.548400 -0.688182 0.341971 -0.639892 
-1.215500 -11.460000 13.026400 0.037772 -0.382779 -0.923067 
5.117900 14.813600 6.230300 0.960809 -0.276521 0.019579 
-3.008300 13.755000 7.603700 0.602690 -0.660142 -0.448305 
-2.412200 -16.868799 19.427000 -0.498626 -0.862986 -0.081404 
-0.756200 16.613899 25.519699 -0.338475 0.385064 0.858581 
-1.547100 12.429200 12.967000 0.979519 0.141439 -0.143306 
1.319800 -1.794800 27.704599 0.257763 -0.012294 0.966130 
-2.634600 -19.437599 33.301701 -0.410233 -0.766829 0.493643 
-0.352000 25.978300 20.162701 -0.448222 -0.097624 -0.888576 
3.400000 6.136900 26.644199 0.732680 -0.052168 0.678570 
-4.399000 15.142000 13.671800 -0.663326 0.747673 0.031361 
-4.012600 15.765900 10.739800 -0.291667 0.915269 0.277873 
-1.979900 -10.223000 1.001800 0.867299 -0.497787 0.000670 
0.633900 16.573700 20.445000 -0.112251 0.992165 0.054840 
-5.511400 -12.338000 20.831800 -0.965084 -0.183066 0.187348 
-1.708800 15.849300 17.891100 0.266440 0.872204 -0.410208 
2.060900 -2.134900 12.459000 0.429536 0.019290 -0.902844 
-5.538500 -9.192300 20.269400 -0.981302 0.183788 0.057175 
3.313000 -10.618600 31.328600 0.514299 0.784080 0.347441 
3.344100 -11.030600 8.493600 -0.264493 -0.942211 -0.205625 
5.870500 -10.339800 0.402800 0.874757 0.266333 -0.404805 
5.115400 -9.827700 2.962000 0.862314 -0.504194 0.046938 
-5.561100 -10.840200 11.511600 -0.890181 -0.437640 -0.126681 
2.501700 -6.464400 26.897699 0.435631 -0.095642 0.895030 
-4.856500 0.557700 23.700800 -0.979269 -0.003205 0.202541 
-4.699000 -13.375900 25.731100 -0.989558 -0.143967 -0.006962 
-1.653400 13.977000 14.684100 0.842847 0.469772 -0.262531 
-2.989000 -8.049300 2.201500 0.535967 0.840731 -0.076877 
-5.320100 7.787000 21.197901 -0.995661 -0.065740 0.065863 
3.571700 -10.661300 30.970100 0.592303 0.758379 0.272098 
4.809900 -12.220100 30.923700 0.881715 0.452159 0.134650 
3.494600 -17.241600 26.678400 0.683319 -0.512574 -0.519946 
4.100900 -17.836599 31.157000 0.859498 -0.504550 0.081811 
-1.726500 -16.069201 16.230900 -0.223306 -0.781152 -0.583041 
-4.866800 -1.635100 16.950600 -0.971636 0.016938 -0.235875 
0.814900 -9.810900 12.378700 0.067376 -0.313903 -0.947061 
5.300600 -11.572000 0.769300 -0.279788 -0.957739 -0.066744 
-3.727100 -7.372100 5.613400 0.156904 0.966175 0.204665 
-3.452100 -8.369600 26.515301 -0.721760 0.440462 0.533906 
2.390500 -8.609300 9.215300 -0.822125 0.568852 0.022745 
-5.449900 13.095000 16.527800 -0.974581 0.223387 0.017029 
4.146800 -11.713100 32.605801 0.517405 0.846945 0.122375 
-5.662200 -10.030100 20.325701 -0.988844 0.107862 0.102730 
-5.269100 -8.001400 17.223000 -0.911011 0.412350 -0.005095 
5.163300 -13.569100 16.879601 0.868942 -0.464225 -0.171565 
4.930700 -8.050700 3.125600 0.744891 0.667154 -0.006556 
-5.344100 -9.365700 0.382300 -0.160518 0.427573 -0.889615 
-3.165400 -12.800400 34.788101 0.426408 0.716406 0.552213 
3.297000 15.568100 23.029301 0.534762 0.765151 0.358570 
-4.888800 -11.068800 24.217600 -0.980542 -0.030329 0.193954 
5.138100 14.881500 8.256300 0.956045 0.254774 0.145152 
1.783300 16.599800 24.550200 0.867204 0.321344 0.380388 
-1.562900 -10.239100 12.498400 0.305218 -0.318811 -0.897330 
-5.175000 -12.439100 14.512400 -0.787338 -0.540774 -0.296077 
0.372500 33.525799 19.697800 0.409950 -0.014448 -0.911994 
5.155400 -15.753900 29.870399 0.980143 -0.172133 0.098441 
-2.588300 9.877400 11.912500 0.431779 -0.542798 -0.720373 
-2.014200 13.315800 10.205000 0.975749 0.018075 -0.218146 
-4.294200 14.983300 22.459999 -0.724157 0.619613 0.302782 
-2.511600 15.948800 17.734800 0.046546 0.958106 -0.282607 
-2.721400 15.318200 1.785100 0.736690 0.598737 -0.314329 
-5.569700 -9.180100 10.607900 -0.968139 0.234302 -0.088368 
-5.155100 -0.148400 21.422100 -0.996178 -0.005424 0.087183 
5.144800 12.765300 10.195800 0.943688 -0.259159 -0.205646 
4.337500 -14.343600 36.137699 0.958621 0.279177 -0.055724 
2.200300 -11.799300 13.090900 -0.190800 -0.489850 -0.850672 
-2.454400 -8.994500 5.238500 0.975797 -0.190786 -0.106865 
2.788700 -13.786100 14.116500 0.078890 -0.564758 -0.821477 
0.261600 28.124800 22.783501 0.240118 0.109889 0.964504 
-1.897600 13.373800 10.921600 0.981853 0.150111 -0.115893 
5.041100 -11.886600 13.211500 0.620136 -0.714972 -0.322872 
-2.546000 15.086700 2.298800 0.985121 0.171262 0.014328 
5.320100 7.787000 21.197901 0.995661 -0.065740 0.065863 
-0.902000 -1.207900 27.796700 -0.157718 -0.003108 0.987479 
4.861900 1.207600 23.632000 0.980424 0.022163 0.195648 
5.302700 -8.081900 17.772400 0.924082 0.382140 0.006511 
-4.565600 -3.366900 24.024900 -0.964197 0.017104 0.264633 
-3.485100 -13.304100 13.867100 -0.142088 -0.578611 -0.803132 
-3.612300 -15.801700 23.162399 -0.807502 -0.584075 -0.082440 
3.981600 -4.133400 25.574900 0.849288 0.052658 0.525297 
-3.457000 -1.963800 26.462400 -0.739713 -0.088616 0.667062 
-4.930500 -3.431400 22.274900 -0.986724 -0.017653 0.161443 
1.897200 -19.708799 31.424000 0.288369 -0.893312 0.344727 
2.013000 13.234500 26.488199 0.417791 0.343817 0.840976 
5.789200 -9.722200 18.316200 0.984217 0.168648 0.053610 
4.275700 -2.086000 25.043900 0.924247 -0.081885 0.372912 
-5.324700 -9.308100 5.327100 -0.994288 -0.066188 0.083724 
5.149700 -7.159700 21.640900 0.982905 0.183109 -0.019212 
2.878400 15.258000 13.627200 -0.541529 0.840217 -0.027945 
-2.536500 -8.354600 7.229800 0.834831 0.550487 0.004538 
-0.792600 37.335400 20.670099 -0.969105 0.202765 -0.140432 
2.465700 3.499800 27.324301 0.478915 -0.001742 0.877859 
3.787200 -10.486300 5.215700 -0.089019 -0.995844 -0.019247 
3.118900 0.289700 13.416600 0.775738 0.004841 -0.631036 
0.000000 -10.489000 32.599602 -0.000001 0.804697 0.593686 
0.899900 30.590300 22.146200 0.747642 0.057527 0.661606 
-5.243100 7.227100 18.947800 -0.991102 -0.114964 -0.067085 
-1.660300 0.526800 12.362700 -0.177993 0.020885 -0.983810 
5.082400 -12.842100 31.654301 0.916337 0.182898 -0.356195 
-4.738600 -11.498800 25.465000 -0.988604 0.071054 0.132717 
-5.156600 -15.902300 29.126900 -0.975983 -0.215202 -0.033829 
5.593900 14.554500 1.983900 0.924120 0.303039 0.232745 
3.438000 12.995100 25.611401 0.629903 0.348309 0.694193 
-1.204800 -11.176600 33.257000 -0.166099 0.700659 0.693893 
0.000000 0.371800 12.306600 0.000000 0.092848 -0.995680 
-1.489200 13.694200 26.533899 -0.346997 0.352365 0.869156 
5.171100 12.974200 22.400299 0.960233 0.188346 0.206102 
4.945600 2.464000 22.905100 0.988043 0.028936 0.151440 
2.302400 6.422900 12.968000 0.245885 -0.005539 -0.969283 
2.718500 3.879400 12.987900 0.539560 0.046570 -0.840658 
1.581800 15.429900 17.129499 -0.411384 0.819369 -0.399247 
0.000000 15.377400 18.008600 0.000000 0.706178 -0.708035 
-1.713400 11.960300 11.677800 0.974061 -0.042183 -0.222319 
-3.482100 15.494300 14.190900 0.044390 0.999003 0.004656 
-0.008900 11.971200 15.384700 0.011753 0.443541 -0.896177 
3.954500 4.833400 14.330300 0.870550 -0.021080 -0.491628 
1.984600 -9.556600 10.858800 -0.996532 0.043244 -0.071097 
-2.906900 -16.237301 17.622499 -0.478448 -0.835806 -0.269287 
-5.454700 10.325900 21.210600 -0.994355 -0.037005 0.099438 
5.842700 -9.803900 16.860300 0.991960 0.126516 0.003107 
-4.005200 -15.622100 25.859301 -0.875989 -0.412360 -0.250205 
-0.884700 33.523899 20.147699 -0.819642 0.014835 -0.572683 
-5.721700 -10.871700 20.281601 -0.990820 0.011000 0.134741 
3.038300 -10.113100 5.010300 -0.717442 -0.674847 -0.172797 
3.325300 5.395000 13.536800 0.671473 0.039365 -0.739982 
4.712600 5.121000 23.969000 0.965902 -0.026813 0.257516 
-4.276900 5.380900 14.975400 -0.921335 -0.035460 -0.387149 
2.648600 14.808100 6.649400 -0.978014 -0.185531 -0.095221 
-2.227200 5.953400 12.942100 -0.245628 0.054017 -0.967858 
5.586700 -12.736600 17.541100 0.953018 -0.292599 -0.078379 
-5.405400 -13.228200 17.450100 -0.922382 -0.371582 -0.105540 
-1.327100 -19.794800 31.722300 -0.425454 -0.846279 0.320625 
-1.246300 -5.513500 12.159600 -0.295358 -0.016988 -0.955236 
-0.560300 7.077800 27.959499 -0.068809 0.019389 0.997441 
-0.447500 14.216400 16.493601 0.416156 0.574754 -0.704607 
5.099500 -7.955600 12.040900 0.724847 0.684824 -0.074915 
-5.689400 11.826100 0.765200 0.083926 -0.994350 0.064991 
1.006700 -21.988400 29.196501 0.237041 -0.919374 -0.313947 
3.712100 -11.860200 0.033300 0.235917 0.179676 -0.955018 
-0.965900 -17.753401 21.247900 -0.337077 -0.935425 -0.106578 
-3.198600 11.110100 10.307100 0.213760 -0.733183 -0.645561 
-4.763000 -4.836500 16.869499 -0.976967 -0.069076 -0.201900 
-3.972800 -15.706900 19.456600 -0.721541 -0.692366 0.002809 
-2.365600 -8.743300 6.611800 0.968876 0.243610 -0.043963 
5.721900 -12.107500 17.157700 0.973149 -0.219297 -0.069926 
-3.348300 -7.722500 8.554300 0.447484 0.891555 0.069909 
4.621400 15.041500 19.026501 0.784526 0.618405 -0.045756 
5.880100 -10.507400 16.400101 0.999734 -0.004902 -0.022535 
-2.768600 -10.683600 31.996099 -0.367821 0.780558 0.505408 
-2.118800 16.090300 18.267900 0.093696 0.934530 -0.343330 
4.970300 5.403800 17.660900 0.987250 -0.034464 -0.155404 
-1.569100 -7.414900 27.750000 -0.473849 0.513633 0.715296 
4.278900 -14.704800 22.854700 0.884895 -0.463248 0.048599 
2.014200 13.315800 10.205000 -0.975749 0.018075 -0.218146 
2.508800 16.095200 18.238400 0.039015 0.958508 -0.282384 
5.168500 15.219800 5.866800 0.985863 0.156067 0.060974 
-5.213600 -8.506000 9.340200 -0.877267 0.477391 -0.050012 
5.039500 -2.308000 17.782499 0.986484 -0.003549 -0.163817 
-1.672900 11.291100 12.018700 0.952003 -0.101271 -0.288850 
5.484100 -8.524800 12.657600 0.894024 0.443562 0.063034 
-3.099900 16.609600 8.840500 0.838161 0.428185 0.337853 
0.000000 7.756100 27.949499 -0.000000 0.047617 0.998866 
-0.847000 -2.124300 12.140600 -0.142174 0.053696 -0.988384 
-4.235200 15.440100 18.943501 -0.664595 0.743550 -0.073803 
-4.165100 -15.866800 32.968601 -0.866131 -0.066960 0.495312 
1.067100 -17.709700 34.857201 0.129750 -0.355536 0.925613 
3.610300 11.401400 0.080900 -0.380789 -0.249402 -0.890392 
-1.108600 31.699699 20.466299 -0.887056 0.009427 -0.461565 
-2.808700 16.391300 19.679100 -0.331842 0.929246 -0.162428 
-3.954500 7.478000 13.993800 -0.772098 -0.241263 -0.587926 
-4.367700 -14.957800 36.515598 -0.901215 -0.406738 -0.149583 
1.656600 -9.537300 30.440901 0.250642 0.896504 0.365320 
-0.996700 3.530100 27.824100 -0.166319 -0.030347 0.985605 
3.254300 -7.488700 4.922500 -0.582713 0.808060 -0.086516 
5.029300 -5.353900 20.769300 0.998150 -0.053614 0.028687 
-5.536800 -12.739200 34.101601 -0.809471 0.582311 0.075308 
-2.522700 -13.971100 35.188301 0.716167 0.326360 0.616923 
4.282500 16.238899 2.758500 0.226712 0.962778 0.147171 
3.757000 -11.628000 33.019798 0.180866 0.932327 0.313135 
0.608400 10.325700 27.629900 0.064207 0.177609 0.982004 
2.481300 -8.442500 7.891200 -0.835343 0.549702 0.005475 
-4.015200 -10.481800 5.359400 -0.094098 -0.995187 -0.027365 
-0.515800 12.968200 26.996099 -0.096370 0.273235 0.957108 
2.622300 -7.332800 12.764600 0.471336 0.045388 -0.880785 
-3.297400 -7.623800 4.233300 0.475913 0.848885 -0.230004 
2.098400 12.426400 26.747200 0.391180 0.305443 0.868149 
2.209300 14.407300 10.611400 -0.925033 0.379864 -0.004229 
-4.574700 -6.641100 15.753400 -0.947540 0.249210 -0.200157 
-3.068100 15.518000 11.122300 0.517847 0.836757 0.177968 
2.407900 0.713800 27.373400 0.421124 -0.001532 0.907002 
1.605700 -16.656900 35.098000 0.252263 -0.140317 0.957431 
-2.075500 14.282800 13.408300 0.863993 0.495246 -0.090812 
-5.178200 13.999700 19.819300 -0.945165 0.326412 0.010854 
-5.280800 -8.749400 3.763200 -0.965861 0.258598 -0.015509 
-2.374200 0.044900 27.383101 -0.417245 -0.018416 0.908607 
3.966400 16.310200 3.795400 0.166939 0.975811 -0.141155 
-1.095200 16.605900 25.352699 -0.493610 0.385783 0.779436 
-4.348700 -14.541600 23.849100 -0.930197 -0.365462 -0.034227 
4.785100 13.287900 23.467100 0.897037 0.276976 0.344397 
-4.851500 14.849700 10.987100 -0.883211 0.464960 0.061241 
-3.058600 -15.356400 16.063499 -0.474781 -0.738091 -0.479379 
-2.743400 14.803100 5.025200 0.968988 -0.245529 -0.027899 
0.000000 -18.882799 34.202900 0.000000 -0.648455 0.761253 
3.355800 -12.711700 1.133700 -0.713793 -0.696137 0.076763 
-3.810300 3.748300 14.164400 -0.858879 -0.046479 -0.510065 
-3.173700 -1.496900 13.372400 -0.770312 0.055540 -0.635244 
-5.355600 -11.569800 1.134900 0.387218 -0.896733 0.214317 
-5.276700 10.263200 22.535601 -0.984986 -0.032984 0.169456 
1.216100 -17.677299 21.549500 0.414988 -0.908371 -0.051450 
-4.617200 -3.283500 16.026899 -0.955403 -0.006347 -0.295238 
2.519500 -12.055500 0.631600 -0.516562 -0.835010 -0.189531 
-3.492200 -7.840700 10.789600 0.439791 0.897817 0.022558 
0.499100 3.522300 27.883600 0.076877 -0.033909 0.996464 
4.515300 16.638300 8.435900 0.858153 0.512261 -0.034102 
2.777900 -9.962200 5.725700 -0.825890 -0.540421 -0.160782 
3.976900 -12.293400 0.122400 0.635336 -0.052824 -0.770427 
0.000000 6.212200 13.092900 -0.000000 0.156527 -0.987674 
