-0.086458 0.936113 -2.711457 0.009159 0.999850 -0.014673 
-15.648292 -1.358354 -9.062744 0.696910 -0.356282 -0.622398 
-25.600800 0.968418 -5.198028 0.391576 0.087496 -0.915977 
-12.112161 -0.405858 -1.263036 0.477089 -0.205419 0.854511 
9.000741 0.836715 -3.002006 0.004323 0.955841 -0.293854 
-14.030519 1.247086 -8.544664 -0.443678 0.236704 0.864361 
-15.217673 -0.090918 -3.404008 0.193885 0.294343 -0.935826 
-15.794435 -1.516219 3.987742 0.644014 -0.146971 0.750763 
-14.027047 -0.740442 -6.633691 0.944199 -0.214475 0.249977 
17.132156 -0.210090 -0.222685 -0.977758 0.208897 0.018753 
-26.918842 -0.239730 -2.221332 -0.679959 -0.546609 -0.488748 
-26.423470 -0.969298 -3.398396 -0.100480 -0.581269 -0.807484 
-16.535755 0.543443 -0.978320 -0.658576 0.189205 0.728341 
18.736786 0.608134 -1.675788 -0.061726 0.918640 0.390244 
-20.869556 -0.388176 -9.058991 0.702005 -0.277147 0.656032 
15.591801 -1.591921 -2.142408 0.033343 -0.990673 0.132121 
23.661060 -0.509456 0.420367 0.930338 0.083089 -0.357167 
-17.416515 0.808048 -1.142165 0.037311 0.148352 0.988231 
-21.543228 1.307701 3.148678 0.258261 0.955463 -0.142798 
10.725240 -0.571565 -0.983935 -0.057915 -0.518611 0.853047 
12.159690 0.437913 -3.660517 -0.006567 0.761647 -0.647959 
-25.159145 1.071963 -5.196605 -0.755042 0.318731 -0.572994 
-2.977864 -1.184783 -1.495015 -0.029899 -0.812742 0.581855 
-12.104089 -1.521432 -8.985373 0.652160 -0.736701 -0.178772 
-28.737682 0.819560 -0.969999 0.126281 0.991858 -0.016446 
-26.035580 0.725470 -4.221878 0.083643 0.372335 0.924322 
-17.077480 -1.543509 -7.991767 -0.016848 -0.999195 0.036398 
21.455414 0.361024 -0.176721 0.030544 0.998306 0.049524 
-1.120708 0.946998 -2.721846 -0.000693 0.996347 -0.085400 
-21.303352 0.423088 5.617912 -0.505138 0.151918 0.849562 
25.930626 -0.190229 7.572723 0.598905 0.268345 0.754522 
-17.093971 -1.766129 4.987788 0.030124 -0.997121 0.069580 
-10.613970 1.105276 -6.614409 0.688182 0.301954 -0.659719 
-13.274624 1.203423 4.267072 0.059370 0.998091 0.017025 
-2.998847 -1.329312 -3.334925 -0.134985 -0.892671 -0.430020 
3.021546 0.595367 -3.508019 0.027627 0.880532 -0.473182 
3.079967 -0.073473 -1.002220 -0.011074 0.342290 0.939529 
18.168900 -1.358535 0.393851 -0.004774 -0.999950 -0.008826 
25.260582 -1.495906 6.603514 0.070843 -0.997329 -0.017784 
-4.396794 0.787062 -1.680485 0.040721 0.859122 0.510148 
-23.084309 1.506519 -6.969437 0.116169 0.992923 0.024661 
-8.319627 -0.181642 1.072126 0.946915 0.276717 0.163645 
17.276081 -0.070230 5.766457 0.211035 0.203904 0.955975 
-10.056354 -1.091878 -8.210173 0.435912 -0.220034 -0.872677 
19.513710 0.002268 0.534545 0.964629 0.262626 0.022751 
-10.982623 1.243239 1.476775 0.058701 0.997905 0.027187 
-8.601479 0.900152 -0.651622 0.954171 0.216101 -0.207021 
3.391283 0.604551 -1.597179 -0.016156 0.853246 0.521258 
-25.536148 -1.212399 -0.962208 -0.154674 -0.132794 -0.979000 
14.479562 -1.147946 1.775497 -0.950334 -0.274525 -0.146633 
-10.496533 -1.152569 2.138475 -0.341336 -0.192451 -0.920028 
-12.485359 1.447359 -8.864941 0.035404 0.999132 -0.021969 
-16.904129 1.510085 -9.446104 0.019516 0.999608 -0.020095 
-0.108054 -0.749615 -4.014954 0.063206 -0.476542 -0.876877 
-3.442602 0.919048 -2.755910 0.010598 0.996567 -0.082115 
-8.307025 0.037252 -5.088117 0.909121 0.385821 0.156974 
-14.216739 -0.039914 -5.509128 0.304075 -0.263664 0.915434 
24.860722 -0.393879 7.706725 0.016905 0.193619 0.980931 
-10.927240 -0.713643 -3.337167 -0.602748 -0.213059 -0.768961 
23.650459 -0.505030 7.586843 -0.642021 0.322715 0.695460 
-13.899981 0.430616 -10.124561 -0.354496 0.264676 -0.896816 
-12.479142 -1.069887 -7.148550 0.516681 -0.261619 0.815228 
-20.177383 0.433881 -11.263596 -0.316193 0.258497 -0.912799 
2.600462 -0.097830 -0.989031 -0.038706 0.416591 0.908270 
1.690908 0.361107 -3.807137 -0.044292 0.587730 -0.807844 
7.943417 -1.111840 -1.330755 -0.027497 -0.741622 0.670255 
17.835922 -0.875542 2.031859 0.719690 -0.370256 0.587330 
-14.478024 0.847040 3.872469 -0.949521 0.195899 -0.245016 
9.003573 -1.486895 -3.165869 -0.069618 -0.962177 -0.263380 
7.811586 0.855760 -2.119829 -0.024152 0.959221 0.281622 
-25.197128 0.012664 -1.132236 -0.515227 0.022738 -0.856752 
-13.531004 0.439327 2.839903 -0.228293 -0.001110 0.973592 
-26.439453 0.007556 -7.030802 -0.641713 0.054415 -0.765012 
-25.761234 0.324310 -5.591958 0.896355 0.180375 -0.404984 
-6.801572 0.987229 -2.316455 0.034295 0.997415 0.063149 
-9.269795 1.180023 -0.749496 -0.729072 0.647863 0.220743 
22.857357 -0.014787 3.240435 -0.993294 0.115390 -0.007281 
-21.655281 -0.852881 5.403121 -0.719206 -0.159272 0.676295 
-15.348517 0.740956 -6.539183 -0.779121 0.142813 0.610389 
-14.425374 0.468904 -8.774418 -0.794428 -0.022462 0.606943 
-18.348225 -1.159165 3.206690 -0.089541 -0.042900 0.995059 
12.014433 -1.504663 -1.943789 0.019740 -0.956332 0.291616 
-18.340157 -0.840303 3.221932 -0.102414 -0.043509 0.993790 
18.516098 -1.377470 1.324112 0.050017 -0.998747 -0.001401 
-15.092933 0.375144 3.478856 0.676267 0.145596 0.722125 
-1.083444 -1.140435 -3.668396 -0.007887 -0.765490 -0.643400 
-24.823738 -1.503417 -4.125504 -0.443605 -0.890609 0.100149 
19.368576 0.153000 7.586087 -0.054361 0.646968 0.760577 
17.078358 -1.600551 -2.253705 -0.031759 -0.993573 0.108648 
24.072336 -1.550490 -1.945126 -0.057512 -0.920579 0.386298 
-13.517680 -0.860627 -6.734263 0.106642 -0.157806 0.981695 
24.934475 0.013790 3.237316 -0.006831 0.188938 0.981965 
-18.699482 -0.763595 -7.149012 -0.817651 -0.064674 0.572070 
-19.732002 -1.523716 4.609489 0.271509 -0.130607 -0.953533 
24.651615 -1.161433 1.359876 -0.016635 -0.262700 -0.964734 
3.904079 -0.426737 -4.146490 0.156729 -0.228175 -0.960923 
-25.571815 -0.934456 0.889441 0.485930 -0.273187 -0.830205 
-20.583820 -0.636500 -9.420701 0.537859 -0.225148 0.812414 
-13.179537 -0.273617 -1.720246 -0.709852 -0.295429 0.639399 
-16.361992 1.470828 -7.910437 0.156794 0.987308 -0.025288 
-14.400412 -1.281243 3.606996 -0.535762 0.091104 -0.839440 
22.375946 0.349619 0.158759 0.038939 0.999059 0.019109 
-12.851001 1.277436 -3.197213 -0.772757 0.631495 -0.063725 
16.208569 -0.013008 -3.958018 0.047440 0.580521 -0.812862 
-20.917549 -1.115146 -3.294101 -0.023229 -0.129681 -0.991284 
16.748688 -1.556496 -2.026578 0.003673 -0.968862 0.247576 
17.105698 0.595561 -3.373360 0.017209 0.843319 -0.537137 
-4.729140 -0.280370 -4.183361 0.084783 -0.309395 -0.947146 
-26.247719 -1.234618 -3.296004 -0.056393 -0.258870 -0.964265 
-16.351181 -1.487833 -4.106476 -0.261521 -0.683829 -0.681164 
-10.967605 0.861876 0.728363 -0.043702 0.256614 -0.965525 
19.188751 -1.489553 7.139687 0.000944 -0.990669 0.136287 
-23.727650 -1.657143 2.230504 -0.064877 -0.997124 -0.039181 
19.546669 0.618067 -1.706064 -0.017304 0.875659 0.482620 
-9.272747 1.127469 0.986275 -0.818007 0.529586 -0.224505 
-11.043767 -1.433632 -2.677242 -0.654080 -0.754022 -0.060246 
-18.536201 -0.412872 4.430198 -0.227102 -0.191283 -0.954901 
-8.449225 -0.971618 0.740601 0.967439 -0.208375 0.143670 
22.248535 -0.725225 1.982959 0.001859 -0.100295 0.994956 
-23.851406 -1.058277 -3.773595 0.931595 -0.084644 -0.353505 
-16.984718 0.008874 -6.538689 0.417740 -0.047181 0.907341 
-13.596477 -1.769112 1.894645 -0.030569 -0.999371 0.018001 
-14.051576 -0.622925 -6.333893 0.969060 -0.192155 0.154914 
-9.386146 0.350628 -0.436507 -0.992713 0.103280 0.062080 
-27.317295 -0.621868 -0.289016 0.221172 -0.294862 0.929591 
23.273552 -1.465770 4.612239 0.007867 -0.999921 0.009782 
14.118712 0.685633 -1.775200 0.030319 0.884166 0.466188 
-18.127224 1.368780 -2.493829 0.969672 0.030416 0.242509 
17.819973 -0.320013 2.628430 0.861983 0.506748 -0.013820 
-6.071506 0.638470 -1.421475 -0.035666 0.842711 0.537184 
14.156898 -1.144862 -1.326262 0.012796 -0.706429 0.707668 
-25.330112 0.707587 -5.166089 -0.114902 0.202233 -0.972574 
-16.393520 1.255879 3.656830 -0.004627 0.999205 0.039602 
-13.847536 0.466078 2.819740 0.250469 0.019515 0.967928 
22.395351 0.494036 -3.497964 0.091053 0.842751 -0.530547 
-12.117148 -1.344442 -9.238943 0.827998 -0.306907 -0.469283 
14.983754 0.294882 6.335752 0.014511 0.999874 0.006511 
-11.914695 -1.680771 1.297176 -0.659250 -0.501324 -0.560414 
20.567711 -1.244109 -3.611421 -0.001480 -0.755483 -0.655166 
-26.728500 -0.146222 -6.678781 -0.796284 -0.308535 -0.520326 
26.034496 0.088907 6.736544 0.851384 0.520697 -0.063400 
-23.899708 -0.740090 -1.202103 0.917064 -0.160187 0.365148 
-26.778187 0.760709 -6.251394 -0.913912 0.140497 -0.380821 
22.039921 -1.479072 5.430779 -0.004746 -0.999792 0.019849 
-20.508327 -1.239549 5.960087 -0.322801 -0.244477 0.914347 
-24.526836 0.185691 -7.716136 -0.677946 0.308275 -0.667350 
-28.140171 -0.920744 -0.628542 0.018666 -0.999237 -0.034316 
-17.646374 1.094224 -2.508780 0.013131 0.998825 0.046641 
-24.226009 1.435032 -3.169355 -0.005830 0.999790 0.019671 
-23.253735 -1.138828 -8.147345 -0.101246 -0.173132 -0.979681 
-22.953407 1.341391 1.977923 0.026665 0.999392 -0.022476 
-25.826450 1.327799 0.116896 0.232533 0.917643 0.322273 
-22.610558 -0.179463 -8.750736 -0.944260 -0.286330 -0.162444 
-20.223392 1.566113 -10.063112 -0.003901 0.998361 0.057094 
-16.882980 -1.086228 -6.874871 0.390537 -0.214613 0.895222 
-21.640518 -1.491376 -7.735010 0.047574 -0.994611 0.092121 
3.051997 0.753986 -3.172382 -0.035216 0.930850 -0.363701 
-16.353664 -1.623737 -3.833515 0.067098 -0.996117 -0.056994 
-16.723843 1.076394 -1.683693 -0.505784 0.862613 -0.009080 
-17.370827 -1.509063 -6.808942 0.187417 -0.727363 0.660165 
-24.792797 1.021948 -1.798677 -0.918536 0.075904 0.387982 
22.979630 0.379237 -1.346911 0.035333 0.983121 0.179510 
-21.205688 -1.524640 -3.182340 0.063480 -0.672199 -0.737644 
0.014179 0.657104 -1.528522 -0.030536 0.799676 0.599654 
11.061580 -1.572876 -2.395791 -0.019211 -0.999768 -0.009694 
-18.809784 -0.364014 -7.425219 -0.977816 -0.027526 0.207647 
-17.803970 1.228753 5.336466 0.274764 0.961085 0.028634 
-15.365354 1.083574 2.196008 -0.427786 0.609883 -0.667115 
-26.219357 -1.542982 -0.199321 -0.052939 -0.997825 -0.039269 
9.467525 -0.809456 -4.027675 -0.016821 -0.409636 -0.912094 
-26.173355 1.304626 1.153259 0.081395 0.994586 0.064603 
22.849171 -0.032657 2.316244 -0.958573 0.279357 0.055655 
-14.017634 1.430257 -7.149789 -0.014572 0.997378 0.070886 
-15.640935 1.150055 -7.306130 -0.128038 0.967292 0.218979 
-10.459260 -0.413454 -6.023676 0.844495 -0.265393 0.465182 
-18.608406 -1.129168 -8.155600 -0.438011 0.306426 -0.845133 
-15.953662 -1.573707 -7.993322 -0.118827 -0.981040 0.153103 
20.196220 -1.544519 -3.173659 -0.032865 -0.912174 -0.408483 
-24.285496 -1.525918 -0.578228 0.587096 -0.795977 0.147444 
-16.963078 -1.193413 -10.460619 0.528125 -0.091214 -0.844253 
-25.887684 -0.237227 -4.088738 0.395027 -0.235377 0.888004 
-9.318328 -0.924955 -5.508494 -0.978135 -0.197341 0.065645 
-9.298218 -1.066108 -5.214394 -0.987429 -0.143467 -0.066347 
22.823668 -1.412334 0.982497 -0.091809 -0.994489 -0.050632 
13.813142 -0.675664 -1.033329 -0.058545 -0.510720 0.857751 
-26.591358 -1.499875 0.106662 -0.385522 -0.906227 -0.173568 
-16.357117 1.123320 -7.281865 0.772452 0.169777 0.611959 
-19.835529 -0.443889 -1.358685 -0.807342 -0.032174 -0.589206 
-12.237677 0.378325 1.767449 -0.889502 0.286252 -0.356155 
-26.802158 0.550400 -5.097573 -0.972889 0.118113 0.198839 
-21.836475 -1.064595 -6.217646 -0.782963 -0.140058 0.606097 
-10.683780 1.280528 -8.251923 0.229103 0.513256 -0.827092 
-10.376877 -0.548179 0.787731 0.907979 -0.105137 -0.405612 
-16.422707 -1.176748 -0.985188 -0.525778 -0.227099 0.819746 
-5.487200 0.692283 -1.493850 -0.020671 0.792671 0.609300 
22.391916 -1.452576 4.187444 0.001510 -0.998604 -0.052803 
-20.226479 1.435691 -2.349125 0.062235 0.990766 0.120455 
-20.529812 0.551627 -3.278366 -0.025464 0.157892 -0.987128 
-24.069649 1.370822 2.268455 -0.093660 0.995595 0.004393 
0.874776 -1.465086 -2.069491 -0.037853 -0.950357 0.308849 
-27.454510 -0.852223 -4.451358 0.097299 -0.979123 -0.178470 
-0.862817 -0.038997 -0.990771 -0.048667 0.344608 0.937485 
20.332298 -1.480874 5.992566 0.019986 -0.999516 -0.023853 
-14.326288 0.742524 -8.669758 -0.738568 0.079140 0.669518 
17.136719 0.362403 1.678841 0.011487 0.999910 -0.006960 
-20.905029 1.269300 4.960065 0.072862 0.991973 0.103352 
15.339540 -0.624265 -4.071769 0.060857 -0.354046 -0.933246 
22.474245 -1.386163 0.449898 -0.105643 -0.992832 -0.055902 
-20.961060 0.770469 -5.199957 -0.714263 0.198819 0.671044 
24.610470 0.214913 6.743255 0.016654 0.999859 -0.002153 
-8.439792 0.426266 -5.818064 0.981384 0.190114 -0.027243 
-8.611073 1.474907 -2.369157 0.836125 0.547468 0.034275 
2.299105 -1.319666 -1.711033 0.025939 -0.882553 0.469498 
0.512037 0.935355 -2.347047 0.077299 0.989616 0.121183 
-28.947874 -0.729118 -2.030616 0.778024 -0.528882 -0.339063 
-23.751438 -1.155812 -3.490860 0.924787 -0.155754 -0.347146 
24.718285 -1.493763 5.414906 -0.001092 -0.999734 -0.023047 
-11.777936 0.048038 -9.075813 0.869978 0.261795 -0.417853 
-18.896126 -0.328976 2.809587 -0.917182 -0.075771 0.391197 
-17.225960 -1.760780 2.922286 -0.134334 -0.990040 0.042134 
11.686900 -0.780418 -4.139415 0.011629 -0.294154 -0.955687 
2.719985 0.770953 -3.207445 0.140192 0.904432 -0.402925 
-22.611805 0.435446 3.053822 -0.775816 0.237810 0.584428 
7.933725 0.848016 -2.989428 0.023544 0.982098 -0.186895 
-9.373775 0.458433 -5.802896 -0.957290 0.214612 0.193747 
11.754302 -1.448978 -3.286808 0.109343 -0.942476 -0.315886 
23.794514 0.606878 -3.314752 0.040251 0.937438 -0.345816 
23.817993 -1.461848 -1.753495 -0.052838 -0.905107 0.421887 
-8.991672 -1.743147 -1.292396 0.207514 -0.968971 -0.134285 
18.966652 -1.447850 4.398301 -0.028691 -0.999588 -0.000397 
22.296301 -0.328369 6.382302 0.959313 0.282344 -0.000258 
-10.792506 -1.802705 2.822235 0.042691 -0.981503 0.186624 
-22.695702 0.604620 1.330611 0.477925 0.190771 -0.857435 
-17.248604 -0.753556 3.591222 -0.954033 -0.097746 -0.283316 
17.453331 0.793768 -2.803489 -0.003982 0.997277 -0.073634 
-11.799371 0.519144 -1.849933 0.314785 0.279459 0.907090 
-23.416328 -0.183586 -3.515786 0.326593 -0.116227 -0.937991 
-24.041164 -1.490642 -7.324320 -0.027187 -0.996978 -0.072776 
-27.281254 -0.739327 -1.560667 -0.425824 -0.403786 -0.809711 
-27.984646 0.809052 -0.664104 0.058195 0.998026 0.023619 
-17.858913 1.252131 4.980430 -0.005483 0.997698 -0.067593 
-28.395000 0.815182 -0.621747 0.000375 0.997585 0.069455 
-24.212864 -1.539891 -0.892401 0.569634 -0.805156 0.165048 
-9.316609 0.658712 2.517715 0.735807 0.165427 0.656675 
20.616711 -1.329835 -0.695081 -0.039022 -0.999196 -0.009249 
12.497776 -0.297542 -4.162445 -0.070996 0.369710 -0.926431 
25.882915 -1.462444 5.819928 0.140652 -0.975353 -0.170013 
-19.166950 1.322590 -0.426208 0.224917 0.914859 0.335330 
-17.800983 0.653216 -6.524667 -0.045421 0.165276 0.985201 
19.830320 -1.492627 6.738504 -0.013149 -0.999712 0.020062 
-21.285366 -1.028985 2.512805 0.949257 -0.288088 0.126165 
23.074978 -1.456451 4.260377 -0.014451 -0.999649 -0.022205 
-8.525882 -1.504919 -0.024862 0.944368 -0.326374 -0.040597 
-10.403565 -1.167145 1.118895 0.992277 -0.104714 -0.066497 
18.463444 -1.353356 0.063940 0.023622 -0.997046 -0.073078 
19.103575 -0.934350 1.955657 0.047137 -0.143165 0.988576 
-2.810487 -0.961316 -3.846949 0.037297 -0.641559 -0.766166 
1.223590 -0.407516 -0.934334 -0.001216 -0.450047 0.893004 
2.087054 -1.206007 -1.524364 0.000347 -0.830725 0.556683 
-15.775069 0.802250 -7.128410 -0.816102 0.133020 0.562390 
-18.767660 -1.324208 -7.957199 -0.864752 -0.291181 -0.409168 
23.074909 -1.463683 5.094778 0.022478 -0.998612 0.047632 
20.659309 -0.451430 5.170475 0.006400 0.578690 -0.815523 
18.815222 -1.347256 0.135671 0.033138 -0.998655 -0.039875 
-10.102277 -2.203193 -3.016857 -0.160180 -0.970634 -0.179478 
1.283991 -1.496059 -2.196105 0.008021 -0.966325 0.257200 
-16.710888 1.110798 1.834496 0.486226 0.415285 -0.768845 
-18.606026 0.363946 1.750707 -0.755509 0.172698 -0.631966 
17.278709 -1.382685 1.442902 -0.007797 -0.999261 -0.037642 
-29.150242 0.435943 -0.446108 -0.387499 -0.020374 0.921645 
23.807796 -1.498370 5.858558 -0.019631 -0.991892 -0.125560 
-19.521366 0.940886 -3.677865 -0.806065 0.126719 0.578102 
-10.496922 0.796314 -6.518854 0.852252 0.221697 -0.473831 
-28.935492 0.112486 -2.844685 0.973807 -0.019529 0.226534 
10.717204 0.845627 -2.786107 -0.044591 0.996898 -0.064847 
24.803295 -1.432391 2.406873 -0.038474 -0.999111 -0.017233 
15.467348 0.275983 7.371095 -0.161282 0.986537 -0.027090 
-10.678029 1.237174 1.214451 0.070362 0.996870 0.036053 
9.694213 0.857258 -2.363139 0.024507 0.999604 0.013852 
-12.972436 -0.401325 -1.388784 -0.648435 -0.062227 0.758722 
19.449661 -1.562393 -2.010162 0.055441 -0.966381 0.251064 
-20.153076 -1.450968 -10.695967 -0.027244 -0.987460 -0.155498 
-23.793079 -0.377039 -1.185044 0.895020 -0.356247 0.268378 
-25.152550 -0.294106 -5.755889 -0.990228 -0.035220 -0.134938 
-18.821201 -0.325615 -9.781311 -0.155225 -0.363107 0.918727 
14.127429 -1.494433 -1.859354 -0.027662 -0.936174 0.350448 
-10.697967 0.647580 -6.804262 0.532412 0.259078 -0.805863 
-18.767578 -0.699105 -7.986580 -0.935831 -0.050191 -0.348857 
-10.351732 1.182095 -8.179221 0.412249 0.314997 -0.854884 
-26.738865 0.800293 -4.038937 0.137365 0.989278 -0.049595 
23.662384 0.273661 2.891726 0.017689 0.999672 0.018525 
-4.062464 -1.000322 -1.296664 0.040056 -0.698713 0.714279 
-22.393101 1.150669 -8.841604 -0.970482 0.102038 -0.218523 
-9.831780 1.073620 -1.339598 -0.101314 0.125074 0.986961 
-25.195580 0.393472 -6.196536 -0.716295 -0.073514 0.693915 
16.118103 -0.498972 1.266426 -0.250205 0.285690 -0.925083 
17.459675 -0.396210 -4.130669 -0.075917 0.106119 -0.991451 
-25.473866 -1.387771 -5.118313 0.157552 -0.447627 -0.880231 
-23.757362 0.427438 -3.839855 0.959684 0.189014 -0.208038 
-15.695394 1.281693 -2.720458 0.742606 0.668581 -0.039181 
-24.571083 1.370448 0.511987 0.027750 0.999592 -0.006751 
26.191250 -0.458194 5.552872 0.960275 0.278119 -0.022829 
5.479874 0.382482 -1.269199 0.037737 0.737861 0.673898 
16.300247 -0.724691 3.813997 -0.890125 -0.455653 -0.007592 
-24.815540 -1.607559 1.518382 -0.425302 -0.879167 0.214904 
-25.853325 1.392822 -5.258940 0.590682 0.723678 -0.356910 
-9.285583 0.568614 0.401050 -0.970279 0.234843 -0.058373 
21.048035 -1.467677 5.341551 0.033250 -0.957987 -0.284879 
14.322131 -0.523002 -0.944437 -0.023976 -0.494392 0.868908 
1.967216 0.449880 -1.326554 -0.004845 0.680328 0.732892 
-3.763154 0.726161 -3.492438 -0.066625 0.794330 -0.603822 
-13.488965 -1.596000 -7.269950 0.066538 -0.994465 -0.081319 
-19.771545 0.319163 -3.783794 -0.700799 0.228731 0.675694 
23.595734 -0.121380 7.167898 -0.982174 0.187484 0.013540 
15.647096 0.351717 -1.344195 0.006603 0.712542 0.701598 
-17.033684 -1.489691 -8.763420 -0.590887 -0.804675 0.057890 
-18.781769 -0.726375 -0.599246 0.653922 -0.238449 0.718003 
-23.392033 1.417218 -2.331121 -0.008994 0.998568 0.052741 
-17.164036 0.001883 5.675091 0.452460 0.155970 0.878040 
-28.980484 0.817804 -3.888692 -0.032710 0.999042 0.029070 
-14.288116 -1.161717 -8.781529 -0.663077 -0.072064 0.745074 
-21.986107 -1.436073 -9.477758 -0.262223 -0.814748 -0.517131 
10.759592 -1.576518 -2.477598 0.009927 -0.998141 -0.060134 
-21.445148 -0.115386 -5.634191 -0.733927 -0.069514 0.675662 
-16.593502 -1.646394 1.927419 0.540999 -0.543842 -0.641526 
22.706249 -1.654713 -3.012816 0.054040 -0.955238 -0.290863 
-3.689705 0.430434 -3.808912 0.077405 0.663699 -0.743984 
-9.668122 -0.416050 -4.185472 -0.808962 -0.249323 -0.532371 
-15.313608 1.175188 -8.617296 0.696489 0.244816 -0.674513 
-18.161976 1.444643 -10.910151 0.327129 0.608067 -0.723354 
-15.698962 -1.537067 -1.997084 0.852682 -0.522430 0.000170 
20.491127 -1.594322 -2.105850 0.016857 -0.972549 0.232085 
-13.254344 -1.820205 4.258453 0.059341 -0.994350 0.088015 
19.027214 -0.902193 7.685248 -0.038227 -0.220177 0.974711 
-15.181907 0.903204 -8.584728 0.642472 0.173184 -0.746483 
-22.876091 -0.250993 3.209400 -0.417196 -0.340151 0.842761 
-3.350392 -0.779389 -1.115703 -0.009637 -0.481947 0.876148 
-16.007629 -1.324216 -9.500330 0.700032 -0.284205 -0.655120 
-21.249031 -0.795642 2.758375 0.975982 -0.167954 -0.138750 
-17.855255 -1.541638 -7.985212 0.136555 -0.986605 -0.089234 
14.406448 -0.282125 5.281017 -0.986620 0.162694 -0.010599 
-18.494606 -1.779212 4.942825 -0.044939 -0.990032 -0.133483 
-9.981919 1.342234 -1.410716 -0.271618 0.221429 0.936586 
-19.878090 0.825777 0.573071 0.687615 0.080443 0.721606 
-17.895676 1.489082 -7.031439 0.046826 0.998805 0.013978 
-10.732888 0.247377 -3.535668 -0.683607 0.287400 -0.670882 
-16.391224 -1.498599 -1.024416 -0.418811 -0.203819 0.884904 
-26.000374 -1.464629 -2.042923 0.053171 -0.549688 0.833676 
-16.434071 0.808489 -7.117014 0.736161 0.221809 0.639428 
18.569538 0.716248 -1.912331 -0.130659 0.957923 0.255561 
-15.178765 0.059058 3.631061 0.704789 0.197931 0.681246 
-14.815286 -1.109579 -8.348344 0.609809 -0.100520 -0.786148 
-18.838932 -0.895977 6.202756 -0.005015 -0.060333 0.998166 
-6.095487 0.088512 -0.975553 0.100851 0.267065 0.958387 
16.098175 0.308586 5.208581 -0.015500 0.999181 0.037388 
19.746109 0.259181 6.084517 0.070048 0.997533 -0.004622 
-9.383965 -0.830706 -5.872919 -0.959100 -0.172039 0.224786 
23.684334 0.238035 4.939421 0.001872 0.999864 0.016406 
22.043121 -1.476752 6.409049 0.116424 -0.993200 -0.000100 
-2.392073 -0.521010 -0.996986 -0.009127 -0.544043 0.839008 
-9.246266 0.859875 0.533781 -0.963304 0.197443 -0.181831 
10.038580 0.860939 -2.360131 0.088513 0.996009 0.011503 
-22.703091 -1.181026 -8.000399 0.234128 -0.346594 -0.908327 
-21.088734 -0.481446 2.173320 0.773755 -0.470328 0.424375 
-19.185856 0.841849 4.757158 0.012740 0.180928 -0.983414 
26.169689 -0.388131 6.051430 0.957424 0.287972 -0.020289 
-7.085584 0.969068 -2.164259 0.093006 0.990780 0.098515 
-17.694599 -1.257883 -1.215523 -0.023814 -0.222033 0.974748 
-8.618871 0.370056 -6.569417 0.914251 0.324047 -0.243183 
12.336039 -0.188247 -0.983201 -0.012102 0.370112 0.928908 
-16.757061 1.490300 -8.958962 -0.057392 0.995767 0.071790 
-20.953716 -1.037877 0.003179 -0.690365 -0.144550 -0.708874 
24.159328 -1.479030 5.315570 -0.054073 -0.997166 -0.052309 
-11.842924 -1.667938 2.859950 0.041506 -0.876642 0.479350 
-24.822891 1.082824 -1.440320 -0.945246 0.171772 -0.277497 
-25.553070 1.351681 -4.239761 -0.236644 0.378008 0.895047 
-15.858605 -1.446865 -7.729385 -0.448043 -0.541485 0.711373 
-10.459680 0.822457 -6.130579 0.893772 0.181039 0.410361 
-2.977426 0.811330 -1.747863 -0.013697 0.948081 0.317735 
-14.509620 0.425551 3.830317 -0.888138 0.128193 -0.441335 
-24.046448 0.988261 2.829513 -0.525849 0.268337 0.807142 
-25.566727 -1.500495 -4.486739 -0.084015 -0.996337 0.015924 
-12.976130 -0.129902 -10.278010 0.325044 -0.114492 -0.938743 
22.131340 -1.398492 3.544204 0.059943 -0.889111 -0.453749 
-20.255470 0.341322 -6.241314 0.673801 0.311868 -0.669873 
6.148887 -0.309171 -4.151420 0.006830 0.205660 -0.978600 
-25.014198 1.353040 -5.960618 -0.892139 0.430798 -0.136018 
-21.059258 1.118459 5.622736 -0.493452 0.512836 0.702498 
13.527728 0.798918 -2.057969 -0.009170 0.963116 0.268929 
-21.992290 0.569379 -6.270267 -0.765794 0.231780 0.599865 
-22.345173 -1.220924 -8.942555 -0.927780 -0.218254 -0.302637 
-20.122746 -0.560291 -4.164454 -0.728908 -0.204007 0.653509 
-18.460678 0.778738 -9.751688 -0.213890 0.161543 0.963408 
19.634848 -0.530050 3.639022 0.978458 -0.028977 -0.204401 
-23.778736 0.433511 -6.301268 0.558272 0.150688 0.815859 
18.280121 -0.176948 6.428197 -0.991882 0.076960 -0.101229 
-8.483073 0.665972 0.643210 0.971562 0.197771 0.130206 
5.420209 -1.118659 -1.372663 -0.077734 -0.774571 0.627693 
-17.793110 -0.941344 5.881434 0.266727 -0.142589 0.953166 
-18.274055 -1.490088 4.564620 -0.301251 -0.082788 -0.949944 
-13.906466 -1.189194 -8.634346 0.142224 -0.081480 0.986475 
-8.610798 -1.854991 -2.351684 0.861839 -0.472618 0.184024 
14.340756 -0.714101 6.758715 -0.996486 0.083273 0.008978 
-10.296174 -0.403192 -1.354775 -0.708438 0.031809 0.705056 
-25.932255 0.046596 2.187541 -0.374097 0.296850 0.878597 
-8.880420 1.352237 -5.894707 0.112349 0.993273 0.028028 
-9.403860 -1.107331 -4.498634 -0.947223 -0.195851 -0.253795 
-15.557363 -1.536285 -7.637827 -0.154050 -0.945873 0.285645 
-17.515858 0.468820 -6.503875 0.091951 0.143395 0.985385 
19.475796 -1.490634 6.791121 -0.070745 -0.992035 -0.104221 
-3.638073 -0.381960 -4.156904 -0.015005 -0.453421 -0.891170 
17.158138 -1.418655 3.216382 0.049751 -0.998152 -0.034901 
18.850498 -1.026799 -3.829431 0.010495 -0.630361 -0.776231 
-25.628094 1.466624 -4.885004 0.125690 0.936247 -0.328090 
-6.472478 -0.741756 -1.101110 0.081361 -0.522146 0.848967 
-26.160622 1.326427 0.406592 0.064671 0.992027 0.108167 
-13.459392 -1.128617 5.020379 0.009387 -0.179256 0.983758 
15.161595 -1.138345 1.354733 0.070104 -0.319394 -0.945025 
-8.577622 0.803136 -3.453890 0.034731 0.847344 -0.529907 
16.404434 -1.562342 -2.029452 0.031963 -0.946043 0.322462 
-19.038574 -1.653811 -1.601921 0.030239 -0.998719 -0.040573 
25.156384 0.686179 -2.072235 -0.011959 0.971986 0.234733 
-10.377679 -1.506287 2.158284 -0.289661 -0.125884 -0.948815 
-21.264687 1.108501 0.482225 -0.704252 0.219459 -0.675179 
-18.258305 -1.525971 5.908009 0.341371 -0.192587 0.919987 
-28.595665 0.183658 -1.742225 0.497803 0.419016 -0.759354 
-20.468502 0.018521 6.150623 -0.311585 0.172504 0.934429 
-19.454041 1.374517 -0.973004 0.004993 0.999517 -0.030680 
-9.662497 1.206721 2.171638 -0.011343 0.997311 0.072403 
25.521442 0.528265 -3.293668 0.194777 0.919752 -0.340762 
-9.353209 -1.615587 -7.229896 0.129375 -0.985158 -0.112807 
-29.127182 -0.890200 -0.919238 -0.059743 -0.994881 0.081500 
-0.713491 -1.174298 -1.473418 -0.007052 -0.798297 0.602222 
-10.711299 1.426668 -2.017452 -0.833968 0.393421 0.386933 
19.903534 0.406852 -0.366510 0.033217 0.998940 0.031871 
-19.864006 -0.274387 -3.777823 -0.749950 -0.240195 0.616345 
-4.386262 -1.338306 -3.291500 0.029720 -0.892645 -0.449780 
-3.695023 0.505948 -1.311755 -0.002072 0.756238 0.654294 
-21.295506 1.307158 0.719056 -0.305001 0.898905 -0.314555 
-24.481201 1.175214 2.331656 -0.694094 0.474923 0.541000 
17.184914 0.415387 -3.607267 -0.009232 0.735141 -0.677851 
-20.529572 1.421392 -2.919475 0.037744 0.990473 -0.132431 
2.677126 0.638098 -3.477780 0.154751 0.842326 -0.516274 
18.257923 -0.355309 6.160676 -0.969296 0.243446 0.034628 
7.373324 -0.049533 -1.015668 0.006600 0.347952 0.937489 
9.339781 0.327229 -3.778007 -0.010735 0.637787 -0.770138 
-1.491491 0.503973 -3.741559 -0.012076 0.676131 -0.736683 
-9.166800 1.166851 0.650613 -0.786218 0.607700 -0.112075 
-13.923154 -1.131014 1.507443 0.069100 -0.016287 -0.997477 
18.483856 -1.452691 4.198387 0.015240 -0.999269 0.035065 
24.789768 -1.504722 6.003284 -0.085470 -0.995545 0.039807 
-20.126766 -1.180554 -4.366385 -0.706980 -0.175122 0.685210 
-26.610191 0.938373 -4.829512 -0.817711 0.261154 0.512979 
-10.395597 0.028960 -5.937831 0.826751 0.000376 0.562568 
-9.154882 -0.722848 -7.555767 0.724041 -0.136695 -0.676076 
-19.129337 1.114711 -3.087709 0.296356 0.919777 -0.257260 
18.171162 -0.934054 3.385782 -0.005423 -0.127816 -0.991783 
-25.143158 1.445122 -2.526329 0.037653 0.998856 0.029483 
-24.104420 0.554787 -7.945328 -0.525252 0.212375 -0.824019 
17.486137 0.390503 0.646089 -0.049428 0.998232 0.033008 
-14.316310 1.197683 1.811679 -0.147163 0.728448 -0.669109 
-24.038513 0.505917 -0.410402 0.988251 0.120982 0.093399 
16.657162 -0.361203 -0.959596 -0.028218 0.314354 0.948886 
-2.613667 -1.295575 -3.412596 0.038410 -0.872488 -0.487124 
-15.463758 0.339724 -9.017458 0.727943 0.330765 -0.600578 
16.425863 -1.389565 1.812575 0.011650 -0.997532 -0.069235 
26.141689 -1.130197 5.114895 0.983625 -0.178105 -0.027591 
-11.789185 0.880657 3.010812 -0.084442 0.253235 0.963712 
19.894775 0.774718 -2.113150 -0.057316 0.978712 0.197072 
-11.994683 1.125392 -3.194993 0.955844 0.211055 -0.204493 
21.381371 0.240051 6.115032 0.012177 0.997843 0.064508 
-22.896011 -1.487565 -7.295117 -0.028792 -0.997017 -0.071611 
-18.822186 -1.468593 -10.402839 -0.022830 -0.999732 0.003858 
-9.409326 0.151178 -5.551313 -0.969333 0.180647 0.166615 
-25.716499 -0.374341 0.715878 0.852412 -0.043585 -0.521050 
-11.815312 0.391091 -8.691287 0.942228 0.283723 -0.178064 
-17.460613 -0.340777 -8.361270 -0.598654 -0.274387 -0.752546 
-24.867546 1.016476 -3.756185 -0.914665 0.129417 0.382936 
-9.009494 1.083180 1.986110 0.854778 0.311273 0.415288 
-18.845425 -0.795804 4.595129 -0.140006 -0.051803 -0.988795 
-8.519465 0.585288 -4.486660 0.981919 0.115258 0.150171 
24.079102 -0.698338 -1.031353 -0.035785 -0.388006 0.920962 
-24.117920 -0.654715 -0.291919 0.982251 -0.185002 0.030935 
9.949441 -1.501059 -3.142129 -0.093932 -0.946006 -0.310240 
23.705093 0.259149 3.647776 0.050296 0.998401 0.025806 
-18.758633 -1.876785 -2.806173 -0.174919 -0.960939 -0.214474 
-26.860790 0.746533 -1.152852 0.013095 0.999910 0.002913 
-13.164010 -1.581933 -7.989907 -0.170821 -0.980819 -0.093879 
-21.284504 -0.833125 -10.697951 -0.577352 -0.211891 -0.788522 
-10.383631 -0.441552 -6.324262 0.992722 -0.120390 0.002887 
-19.693058 -0.454064 4.450600 0.252387 -0.190481 -0.948693 
19.207157 -1.420099 -1.657837 -0.073016 -0.881437 0.466624 
-8.510386 0.985205 -3.077822 0.327119 0.859837 -0.392012 
-11.029042 -1.277079 -5.853627 -0.118893 -0.091020 0.988726 
21.649443 0.730546 -3.090145 0.087987 0.931381 -0.353254 
-24.311363 -1.512959 -0.267122 0.789775 -0.612664 -0.029977 
-19.263622 1.167660 -11.206716 0.041682 0.130788 -0.990534 
-16.369442 -1.007088 -7.325792 0.812052 -0.218138 0.541283 
-22.692177 -1.092154 -6.582991 0.549181 -0.269847 0.790938 
-18.538483 1.494739 -7.806558 -0.128621 0.990700 -0.044389 
3.071930 0.332367 -3.790587 0.082197 0.622390 -0.778379 
-17.442070 -0.641919 -8.290525 -0.553988 -0.333681 -0.762728 
23.463158 -0.953767 6.596415 -0.824736 -0.475375 0.306315 
-10.344165 -0.543886 3.405963 0.386566 -0.282823 0.877826 
-17.793766 1.102320 -3.831113 -0.251517 0.361976 -0.897615 
-24.359226 1.438136 -2.732854 0.037614 0.999254 0.008797 
-20.501781 1.202440 -3.162461 0.042311 0.257454 -0.965364 
-6.820457 0.772202 -3.458771 0.025165 0.852173 -0.522655 
-25.008671 1.310163 0.432940 -0.769540 0.638546 -0.008217 
26.023567 -0.530217 3.249541 0.629377 0.092421 0.771584 
-22.911488 1.114857 -3.181463 -0.012923 0.177395 -0.984055 
25.842703 -1.501294 -2.114916 0.260725 -0.939300 0.223020 
-0.058018 -1.156861 -1.445047 -0.037479 -0.767928 0.639438 
16.041027 -1.602819 -2.407739 -0.042132 -0.999083 0.007592 
-18.879066 -0.046777 2.345837 -0.976212 -0.003111 -0.216797 
-18.186852 -1.782142 5.658724 0.118161 -0.985690 0.120226 
-11.457652 0.711439 3.236130 -0.479710 0.114665 0.869902 
-19.627708 -0.917616 -3.761362 -0.717898 -0.218859 0.660851 
-11.847148 -1.423787 -2.359270 0.497153 -0.866514 0.044628 
14.938904 -1.514565 -1.887764 0.056427 -0.936809 0.345261 
19.605133 -0.345775 3.889704 0.913574 0.396856 -0.088813 
22.539051 -1.547486 -3.249305 -0.005381 -0.853877 -0.520447 
-8.505719 -0.735574 -1.145103 0.725579 -0.557404 0.403528 
-17.762337 -1.512295 5.709491 0.441057 -0.245865 0.863145 
-20.353374 -0.194892 -3.459826 0.061879 -0.093622 -0.993683 
-10.044733 -0.508518 -1.213162 -0.166124 -0.079650 0.982883 
-13.335507 1.477427 -9.447846 0.016269 0.999809 -0.010845 
16.824554 0.369012 1.652199 0.024033 0.999418 0.024213 
-20.717701 1.473271 -5.342463 -0.084872 0.994578 0.060097 
-15.393800 0.984388 -1.949101 0.020872 0.455574 0.889953 
-26.346195 -0.425409 -6.973082 -0.568596 -0.197898 -0.798458 
-2.983080 -1.482174 -2.399126 -0.027431 -0.994742 0.098675 
-25.893776 -0.479516 -3.793893 0.883146 -0.304487 -0.356848 
13.168318 0.619040 -3.405990 0.025111 0.852208 -0.522599 
-24.649155 1.486320 -5.231110 -0.026010 0.999098 0.033579 
-16.497654 0.739939 -10.096494 0.572191 0.270765 -0.774134 
-24.993050 -0.091926 -1.400160 -0.909058 0.011880 -0.416500 
0.748501 -0.353896 -4.182732 0.001193 -0.208651 -0.977989 
22.401577 -0.400363 6.039331 0.908248 0.116542 0.401876 
-20.352131 -0.764383 -4.487460 -0.718057 -0.218385 0.660835 
6.484992 -0.412547 -4.161490 -0.030471 -0.312311 -0.949491 
-12.892583 -1.571187 -9.064245 -0.030669 -0.998357 -0.048406 
-3.330690 0.793111 -1.694143 0.223804 0.819089 0.528209 
-26.240662 -1.510908 -3.080753 -0.092764 -0.976627 -0.193893 
-1.196241 -1.458693 -3.067727 0.066001 -0.983674 -0.167421 
-26.707043 0.588914 -6.492196 -0.929432 0.164016 -0.330538 
-18.107090 -0.207599 3.230721 0.219955 -0.073902 0.972707 
-7.736861 0.039297 -1.026278 -0.131983 0.333720 0.933387 
4.384702 -1.394214 -3.266227 0.056005 -0.906895 -0.417618 
-24.090328 0.379112 0.174633 0.989682 0.127871 0.064643 
26.109364 -0.045503 -1.282224 0.548717 0.551512 0.628287 
-19.812511 1.219331 0.393044 0.650069 0.336568 0.681272 
19.884457 0.410918 -1.089078 0.007523 0.999895 -0.012383 
-12.039651 1.374275 -7.258207 -0.453116 0.881557 0.132449 
-26.454559 1.313073 0.614321 -0.038597 0.995966 0.081012 
-10.183636 0.394817 -1.330024 -0.442533 0.078530 0.893307 
4.932257 -0.482235 -0.946022 -0.030190 -0.582999 0.811912 
-3.681086 0.248513 -1.086482 -0.150032 0.551411 0.820632 
-23.702698 -1.652631 1.918309 -0.053514 -0.991808 -0.115985 
-19.529057 1.333609 -3.809484 -0.671228 0.473824 0.570038 
-9.111581 0.693143 2.253381 0.812034 0.194370 0.550292 
-14.241370 1.215784 3.865872 -0.401163 0.916006 0.000807 
-14.094894 -1.182585 3.438843 -0.477202 0.019659 -0.878574 
-21.895180 -0.274692 -10.238165 -0.744311 -0.287480 -0.602790 
-26.152443 1.422693 -6.326835 0.042040 0.992262 -0.116826 
24.623684 -1.507840 7.297116 -0.002019 -0.998714 0.050664 
-13.163861 0.810509 4.976155 0.209315 0.156372 0.965264 
-14.913560 0.802431 -5.918994 -0.792602 0.115032 0.598791 
-26.887413 0.153113 0.192924 -0.895588 0.311393 -0.317736 
-21.605396 0.530479 -10.441963 -0.679935 0.229739 -0.696354 
-22.677715 -0.283398 3.810456 -0.931723 -0.201126 0.302392 
20.941629 0.772745 -2.416942 -0.016358 0.995428 -0.094106 
-10.953801 0.743201 2.191538 0.801994 0.060400 -0.594270 
19.073547 0.222834 7.492111 0.110139 0.947309 0.300790 
-12.303435 -0.653757 4.582196 0.761213 -0.307235 0.571105 
4.421928 -1.245874 -3.559184 -0.137034 -0.831833 -0.537843 
-23.891888 -0.372731 -6.263535 0.862522 -0.230253 0.450598 
-22.139423 1.496637 -9.103083 -0.451733 0.858895 -0.241324 
19.353399 -0.720422 1.962446 0.253564 -0.211519 0.943909 
-23.679848 -1.155645 -8.058121 -0.365518 -0.212955 -0.906116 
-0.095660 -1.526049 -2.755054 0.290653 -0.930713 -0.222025 
-10.212615 -0.592629 -7.130600 -0.565888 -0.267702 0.779812 
-21.014935 0.020322 -8.177099 0.996356 -0.085224 -0.003353 
-1.041720 -0.406124 -4.156362 -0.077483 -0.465809 -0.881486 
8.136388 -0.403523 -0.899014 -0.015743 -0.204452 0.978750 
-25.955959 -0.025030 -7.317199 -0.386887 -0.129557 -0.912980 
-14.126990 0.797236 -9.886522 -0.621324 0.214276 -0.753685 
-20.911976 0.044489 -4.916676 -0.770500 0.125174 0.625028 
-21.287632 1.490316 -6.709297 0.006061 0.998780 -0.049002 
22.461887 -0.722575 5.890355 0.751250 -0.458502 0.474762 
-25.062302 1.292199 -5.608270 -0.953929 0.299873 -0.009803 
-7.978688 -1.412329 -2.281710 0.035017 -0.995539 0.087613 
22.083822 -1.692822 -2.765860 -0.075663 -0.996215 -0.042780 
23.314014 0.274439 2.743976 -0.023805 0.999688 0.007560 
24.120388 0.698459 -2.571911 0.130336 0.991328 -0.016791 
-19.458427 -1.452848 -10.055704 -0.099520 -0.882219 0.460202 
16.313984 0.298639 5.793590 0.028434 0.999514 0.012752 
-18.161472 1.175638 -2.242664 0.405235 0.820948 0.402279 
-17.682003 -0.404759 -1.060140 0.014017 -0.307738 0.951368 
19.105927 0.295433 4.617998 -0.040834 0.998840 -0.025517 
-11.025418 -1.512989 -8.355183 -0.100033 -0.647783 -0.755229 
24.847466 -1.201316 4.419941 0.061593 -0.107871 -0.992255 
-15.931639 -1.645196 -2.607572 0.121969 -0.992496 -0.008709 
-14.175660 0.762483 -5.893776 0.981024 0.128864 0.144867 
17.002415 0.190334 -3.800063 0.033018 0.570066 -0.820935 
-26.849850 -0.805727 -5.567091 -0.981537 -0.179238 0.066774 
-23.754925 -0.505404 1.154690 0.443090 -0.182065 -0.877795 
-7.165130 0.774353 -3.462141 0.014582 0.842615 -0.538319 
17.355646 -1.438986 4.658540 -0.017501 -0.999820 -0.007383 
18.186428 -1.186290 1.900807 -0.022339 -0.219893 0.975268 
8.747066 -1.382593 -1.721116 0.024940 -0.910465 0.412834 
18.713345 -1.476121 5.706838 -0.056045 -0.998423 -0.003093 
-5.711234 -1.402016 -3.090345 0.005127 -0.939297 -0.343066 
-11.092406 0.775097 -3.136364 0.043042 0.241025 -0.969564 
-12.492934 -1.706026 -1.681659 0.151581 -0.974082 0.167890 
-14.219918 -1.246884 -9.765823 -0.727298 -0.196717 -0.657526 
-10.819818 -1.774216 -3.058414 -0.855675 -0.355367 -0.376211 
5.080109 -1.522447 -2.417813 0.034702 -0.998673 0.038055 
1.101179 0.848562 -1.927468 0.029928 0.974908 0.220585 
22.456921 -1.077919 -3.777610 0.044225 -0.608991 -0.791943 
21.662533 0.381189 -0.716461 0.067725 0.997014 -0.037096 
-14.576547 0.095920 4.359401 -0.793277 0.328144 0.512868 
-27.013046 0.009209 -5.876566 -0.986110 0.110128 -0.124336 
-8.762041 0.384407 -6.862605 0.885923 0.165617 -0.433256 
24.851463 -1.622046 -2.341691 -0.027562 -0.989698 0.140492 
16.376553 -0.413617 -4.141355 0.135715 -0.096124 -0.986074 
-15.651905 1.138125 -3.129052 0.950801 0.288056 -0.114025 
-18.408958 1.100549 -9.783259 -0.242274 0.111167 0.963818 
-15.659499 1.078307 -3.438643 0.968803 0.243262 -0.047382 
23.112408 -0.364435 5.787678 0.073770 0.166896 0.983211 
7.565006 -0.025435 -4.011540 -0.029512 0.518874 -0.854341 
-22.340172 -0.020403 4.526521 -0.898096 0.214381 0.384011 
-22.462566 -0.732930 4.143719 -0.938823 -0.191840 0.286023 
-15.875715 0.458945 -4.179515 0.453058 0.250307 -0.855620 
1.401946 -0.158690 -0.955747 0.017126 0.497842 0.867099 
10.400565 -1.364056 -3.472495 0.003082 -0.855466 -0.517850 
11.012231 -0.983803 -3.988755 -0.305093 -0.738885 -0.600806 
8.833669 -0.013539 -1.024594 -0.035721 0.364532 0.930505 
-21.308350 -1.149128 -10.596680 -0.571674 -0.215284 -0.791734 
-17.312756 -1.334794 -2.551203 0.055995 -0.996054 -0.068857 
-9.578198 0.271567 -4.120657 -0.926498 0.218279 -0.306521 
26.213631 0.214202 -3.356282 0.487848 0.687687 -0.537672 
17.849529 0.514225 -3.495317 -0.043819 0.843528 -0.535294 
-19.558167 0.560353 -9.755344 0.126910 0.224903 0.966081 
-9.679724 1.609213 -1.533992 -0.078892 0.903743 0.420742 
10.050895 0.850797 -2.760073 0.015941 0.994921 -0.099392 
21.098507 -1.486444 6.386797 0.059289 -0.998132 -0.014743 
-23.990402 0.843361 -7.918685 -0.358087 0.176946 -0.916768 
19.905773 -1.322198 -0.245651 -0.033367 -0.998822 0.035230 
-26.552692 0.745532 -1.271026 -0.004018 0.999611 -0.027608 
-14.845287 -1.440253 1.515658 -0.043879 -0.994895 -0.090881 
-9.656550 -0.838379 1.320169 -0.834187 -0.256310 -0.488300 
-19.893520 -1.629909 0.172955 0.397714 -0.860646 0.317982 
-26.630165 0.919504 -3.048263 -0.779806 0.585360 -0.221935 
2.777873 -1.026667 -3.808395 0.021202 -0.646635 -0.762505 
-28.313171 0.799420 -0.922832 -0.018222 0.994292 -0.105122 
17.478943 0.300822 4.877262 -0.007554 0.999861 0.014859 
23.583637 -1.188914 6.328537 -0.998074 -0.061976 0.002808 
-29.594318 0.797707 -2.327801 -0.046273 0.998915 -0.005208 
-13.850299 -0.940225 -1.933606 0.005350 -0.233756 0.972281 
21.241695 -1.342460 -0.285607 -0.027270 -0.999597 0.007831 
-17.350945 -1.489968 -9.423288 -0.294112 -0.912005 0.285911 
-20.217781 -0.770946 6.150931 -0.217295 -0.097104 0.971264 
-14.319440 1.159719 4.171441 -0.640273 0.764319 0.076588 
-15.473741 1.114743 -6.929657 -0.473340 0.808821 0.348937 
1.786626 -1.167337 -1.464350 -0.005253 -0.808915 0.587902 
-11.978856 -1.519099 -3.140009 0.885349 -0.431127 -0.174030 
-11.236325 -1.124242 -3.225496 -0.089730 -0.183361 -0.978942 
-25.511452 1.119079 1.883771 0.110162 0.906374 0.407861 
-26.262402 -1.507185 1.200403 -0.037611 -0.995882 -0.082484 
21.782417 -1.433314 3.743633 -0.035315 -0.998307 -0.046228 
-24.549393 1.473959 -6.967208 -0.357509 0.917534 -0.174126 
17.813366 -1.586602 -3.016400 -0.013446 -0.987815 -0.155051 
-24.896881 -1.558571 -2.352358 -0.025984 -0.997605 -0.064104 
-2.243500 0.957630 -2.719073 -0.027889 0.999240 -0.027237 
19.596684 -0.803924 4.327043 0.942225 -0.334901 -0.007348 
22.400620 -0.039183 1.945340 -0.027827 0.163807 0.986100 
-17.644920 1.476140 -3.753876 -0.144787 0.385299 -0.911362 
-10.336484 -1.524069 3.126566 0.457625 -0.263015 0.849354 
-8.696342 -1.613083 -0.973265 0.889944 -0.394033 -0.229648 
-22.267708 -1.670518 1.942218 -0.167804 -0.984800 -0.044833 
23.404667 -0.183074 0.077665 0.956870 0.262841 -0.123755 
25.113659 0.198144 -3.808224 0.026365 0.571324 -0.820301 
-12.402022 -1.228385 -1.337767 0.119909 -0.103936 0.987329 
-25.115566 1.020695 1.958795 0.033997 0.831994 0.553743 
12.508745 0.774631 -1.977516 0.065561 0.964739 0.254914 
-13.583572 -0.815870 -8.108081 -0.521123 -0.317575 -0.792198 
17.132595 0.239486 5.705310 0.272257 0.750947 0.601627 
26.738106 -0.132429 -1.919113 0.828595 0.411964 0.379099 
-13.916340 -0.815853 2.799860 0.324366 -0.053923 0.944393 
23.211243 -1.322443 -0.899461 0.229453 -0.967105 0.109816 
-14.097281 -0.802538 0.780954 0.981723 -0.155600 -0.109584 
22.394672 0.018446 3.519668 -0.020737 0.204421 -0.978663 
22.203997 -0.418397 7.555034 0.731832 0.309602 0.607098 
-25.088078 -0.799477 -6.264823 -0.990203 -0.111108 0.084578 
-22.008472 -1.649809 4.504225 -0.620843 -0.717588 0.315629 
-12.082290 1.404109 -7.666226 0.199273 0.979520 0.028841 
21.014811 -0.889476 1.070973 -0.959613 -0.279815 -0.029094 
21.254101 -0.106137 -3.961070 0.020907 0.473838 -0.880364 
-8.929420 -1.476102 -6.952868 0.781951 -0.447439 -0.433995 
-23.810600 0.712249 -3.732643 0.861504 0.274713 -0.427018 
-25.169235 -0.745751 0.605205 -0.981371 -0.094805 0.167101 
6.451501 -1.535677 -2.692971 0.018055 -0.999156 -0.036890 
-26.460758 -0.202980 1.847843 -0.658055 -0.206818 0.724009 
-16.267239 -0.314186 4.999320 0.711485 -0.181436 0.678874 
15.154181 -0.768877 -1.083093 0.050793 -0.407889 0.911617 
-16.344009 -0.392373 -7.142922 0.827380 -0.338149 0.448439 
-12.803294 1.110794 -9.834245 0.430607 0.200637 -0.879956 
-22.205341 -0.302292 -9.775537 -0.825021 -0.264276 -0.499499 
-0.781087 -0.116805 -4.129809 0.052879 0.618737 -0.783817 
-24.985256 1.385947 -0.424656 -0.020656 0.998118 0.057745 
23.741657 -0.803554 0.785236 0.846733 -0.203933 -0.491381 
-19.888226 -0.736463 4.494010 0.341134 -0.240024 -0.908854 
-16.418644 1.254605 3.968822 0.055905 0.998079 -0.026707 
-24.809139 1.096038 1.981339 -0.608179 0.562114 0.560488 
16.562695 0.359846 2.670625 -0.025846 0.999565 0.014228 
-20.556606 -1.000139 -9.525600 0.601905 -0.106259 0.791467 
-1.937737 -1.460818 -2.105499 0.015367 -0.970132 0.242091 
17.831425 -0.738260 2.305542 0.889129 -0.449700 0.084975 
-9.059464 -1.796574 1.114303 0.095407 -0.995333 -0.014512 
-18.151367 -1.088470 4.465900 -0.380369 -0.083031 -0.921100 
21.712059 0.248571 6.029085 -0.014049 0.998577 0.051451 
-25.195942 -1.355360 -0.966933 -0.073969 -0.205088 -0.975945 
22.096478 -1.392362 1.179642 -0.014368 -0.999343 -0.033266 
-0.150229 0.728421 -3.430681 0.035946 0.870403 -0.491025 
-2.847270 -1.170650 -3.604210 -0.004286 -0.777163 -0.629284 
-20.348503 0.384614 6.128130 -0.337405 0.282331 0.898024 
-8.527632 -0.998141 -0.907527 0.960233 -0.182619 -0.211195 
22.304375 0.683779 -3.207707 -0.019527 0.838319 -0.544830 
-11.425458 1.006928 -2.355312 0.040641 0.995263 0.088312 
-25.653965 1.479589 -4.573897 -0.000496 0.999973 0.007300 
-3.104953 -0.899682 -3.897801 -0.032420 -0.610421 -0.791414 
25.522892 0.357028 -3.571931 0.335017 0.738533 -0.585092 
26.180573 -0.899650 4.917616 0.973207 -0.215021 -0.081452 
-21.580406 1.412260 -2.327782 0.074585 0.992281 -0.099076 
-21.214622 -1.050758 -3.298563 0.057031 -0.145340 -0.987737 
-18.077927 -0.987911 1.459594 -0.578379 0.261189 -0.772825 
-20.926582 -1.295985 -6.833626 0.772271 -0.299128 -0.560465 
8.736673 -0.253848 -4.156161 0.032354 0.462012 -0.886283 
-19.841835 -0.790237 6.168592 0.251160 -0.192761 0.948558 
-13.509744 -0.133091 2.842037 -0.300315 -0.015555 0.953713 
23.499550 -0.194810 0.453539 0.920161 0.229390 -0.317309 
5.810696 -0.992017 -3.875882 0.110722 -0.519483 -0.847277 
20.420605 0.025836 5.302251 -0.034960 0.190986 -0.980970 
-17.909634 1.195252 4.629385 -0.170256 0.807874 -0.564227 
16.649292 0.365473 2.167920 0.048481 0.998095 -0.038146 
14.984471 -0.722923 4.307219 -0.041079 -0.349111 -0.936180 
-8.203319 0.995353 -2.362739 0.113430 0.991658 0.061214 
-24.810860 0.875642 -3.487795 -0.983222 0.177302 -0.042878 
2.357899 0.897237 -2.282303 0.024824 0.997054 0.072576 
25.360432 0.002828 1.469142 0.060973 0.314190 -0.947400 
25.127586 -0.158958 -0.987453 0.079365 0.386427 0.918899 
-17.978947 1.250747 -1.936623 -0.653708 0.160736 -0.739479 
-26.738667 -0.858317 -3.433258 -0.071760 -0.996300 -0.047293 
-15.138875 -1.102872 -8.612158 0.664183 -0.139034 -0.734528 
-20.135361 1.361137 0.144237 -0.059330 0.966109 0.251225 
18.336834 -1.214331 7.121958 -0.980490 -0.190794 0.047301 
-26.522339 -0.777550 1.604802 -0.755616 -0.338756 0.560615 
-20.553894 -0.306941 -9.351738 0.573280 -0.300837 0.762134 
-15.753177 1.136064 4.009723 0.644173 0.496535 0.581803 
17.083715 -1.400810 2.136997 -0.008188 -0.998769 -0.048919 
-8.551215 0.431784 -6.279782 0.962752 0.089447 -0.255162 
-26.041023 0.392480 2.033465 -0.408865 -0.163399 0.897848 
-13.605053 0.729916 -10.118672 -0.086741 0.193502 -0.977258 
-24.085171 -1.494404 -3.909458 0.470706 -0.864765 -0.174978 
-20.584908 -1.548945 4.279191 0.572493 -0.408945 -0.710645 
22.512249 -1.457497 -1.702757 -0.042681 -0.834854 0.548814 
25.209045 -1.579047 -2.016523 0.008703 -0.979606 0.200739 
15.832894 0.292750 6.082958 -0.021396 0.999100 0.036622 
23.662239 0.562660 -1.697317 0.054813 0.899493 0.433484 
11.487567 0.680395 -1.692435 -0.060017 0.854499 0.515974 
-24.171818 -1.066306 -4.920856 0.960106 -0.254876 -0.115042 
-21.473419 -1.659348 2.167955 0.270780 -0.957064 0.103474 
-13.895710 -1.568937 1.541051 -0.110428 -0.311608 -0.943772 
-15.627704 -0.763220 -4.036321 0.926630 -0.171578 -0.334543 
14.391918 -0.248830 2.599686 -0.977099 0.204536 0.058667 
14.466135 0.187519 -3.833190 0.018174 0.559282 -0.828778 
-27.641693 -0.804011 -4.716998 0.028249 -0.942899 -0.331879 
-17.131802 1.343451 -3.095226 0.727981 0.432267 0.532154 
-11.049756 0.693625 -1.903243 -0.031415 0.172401 0.984526 
-10.758865 -0.794980 1.731496 0.385343 -0.057241 0.920996 
-3.708414 -0.384660 -0.919808 -0.013017 -0.444203 0.895832 
-9.615642 0.367862 -6.408676 -0.851351 0.111075 0.512703 
-20.812328 1.293610 5.579085 -0.179816 0.942366 0.282155 
-22.250774 -1.490814 -7.698844 0.067622 -0.994780 0.076416 
19.225960 0.270593 5.762110 0.034929 0.999005 0.027749 
20.399143 -1.067168 5.169037 0.031117 -0.086774 -0.995742 
-21.421741 -0.222193 5.666961 -0.654723 0.039431 0.754839 
-14.471511 -0.224906 -5.498990 -0.257130 -0.122658 0.958561 
24.025997 -1.490791 7.420898 -0.015462 -0.969383 0.245066 
-24.747364 1.494948 -5.996638 -0.160814 0.986920 0.011264 
8.943140 0.726926 -3.293933 0.028222 0.888584 -0.457845 
4.941540 0.292795 -1.201419 -0.028546 0.659826 0.750876 
25.054623 -0.010291 1.460511 -0.133111 0.268929 -0.953918 
-21.958214 0.331866 -10.111666 -0.778834 0.273234 -0.564589 
-22.093899 -0.243269 -1.801374 -0.035371 -0.108825 0.993431 
-15.000187 -1.763740 2.193275 -0.061916 -0.997578 -0.031685 
21.319653 0.541673 -1.619470 -0.024929 0.826349 0.562607 
-16.709873 0.962227 -10.214702 0.623191 0.305926 -0.719752 
-4.404719 0.346308 -1.140835 0.025367 0.627622 0.778105 
-26.795017 -0.783996 -5.264485 -0.957542 -0.102996 0.269267 
19.199276 0.258895 6.419496 0.043657 0.999046 0.001307 
-14.946982 0.851703 3.275073 0.499340 -0.038533 0.865549 
-25.069462 -1.350633 0.984688 -0.992285 -0.120384 0.029623 
-22.439507 0.156910 4.235432 -0.887900 0.297421 0.350961 
6.451238 -1.490518 -3.040527 -0.019134 -0.967635 -0.251626 
-21.550869 -0.871882 -10.451349 -0.701092 -0.151561 -0.696777 
-17.487297 0.039050 1.317560 0.096267 0.211807 -0.972559 
-26.680950 -0.981066 -2.726051 -0.965983 -0.258566 -0.004422 
-19.844357 -1.626743 -2.747685 -0.006346 -0.999173 0.040162 
